240,240,240,240,240,240,240,240,240,240,240,240,240,240,240,240,240,240,240,240,240,240,82,80,81,81,81,79,80,80,80,80,81,78,80,79,80,79,80,79,80,79,79,80,80,79,80,78,80,80,79,78,80,79,80,79,79,80,80,79,79,77,80,78,79,79,79,78,79,79,79,79,78,79,78,79,80,78,80,78,79,79,78,79,78,79,78,78,78,79,79,78,79,77,79,78,79,79,78,79,79,79,79,80,79,79,79,79,80,78,79,77,78,79,78,78,78,79,76,77,78,77,77,78,77,77,78,78,77,78,75,76,76,76,77,76,77,77,75,77,77,76,78,77,78,80,79,79,78,77,80,78,79,79,78,78,80,77,78,77,78,78,78,79,79,77,79,78,78,80,80,77,79,80,80,77,77,78,79,77,77,78,77,77,77,77,77,77,77,77,77,77,77,76,77,78,77,78,78,78,77,78,77,79,78,79,79,78,78,78,78,78,78,79,77,78,78,79,77,78,77,77,77,77,78,77,77,77,77,77,78,78,77,78,78,78,78,78,79,78,81,79,79,80,80,79,79,79,79,79,79,79,79,79,79,76,77,78,75,75,75,75,76,75,75,76,74,74,75,74,74,74,74,74,74,74,73,72,72,72,71,74,75,75,76,77,77,77,77,78,79,78,78,78,78,79,78,78,77,78,79,79,79,77,77,240,240,240,240,240,240,240,240,240,240,240,240,240,240,240,240,240,240,240,240,240,240,240,240,240,240,240,240,240,240,240,240,240,240,240,240,240,240,240,240,240,240,240,240,240,240,240,240,240,240,240,240,240,240,240,240,240,240,240,240,240,240,240,240,240,240,240,240,240,240,0,0,240,240,240,240,240,240,240
240,240,240,240,240,240,240,240,240,240,240,240,240,240,240,240,240,240,240,240,240,240,82,80,81,81,80,79,80,80,80,80,81,78,79,79,80,79,80,79,80,79,80,80,80,79,81,78,80,80,78,78,80,79,80,79,79,80,79,79,79,77,80,78,79,79,79,78,79,79,79,79,79,79,78,80,80,78,80,78,79,79,78,79,78,79,78,78,78,79,79,78,79,77,79,78,79,79,78,79,79,79,79,80,79,79,79,79,80,78,79,77,78,79,78,78,78,79,76,77,78,77,77,78,78,77,78,78,77,78,75,76,75,76,77,76,76,76,75,77,76,75,78,77,78,80,79,79,78,77,80,78,79,79,78,78,80,77,78,77,78,78,78,79,79,77,79,78,78,80,80,77,80,80,80,77,77,77,80,78,77,78,77,77,77,78,77,77,77,77,77,77,77,76,77,78,77,78,78,77,77,77,77,78,77,78,78,78,78,78,77,78,78,79,77,78,78,79,77,78,77,77,77,77,78,77,77,77,77,77,78,78,77,78,78,79,79,78,79,78,82,79,79,80,80,79,80,79,79,79,79,79,79,79,79,76,77,78,75,75,75,75,76,75,75,75,74,74,75,74,74,74,73,74,74,73,73,72,72,72,71,74,75,75,76,77,77,77,78,78,79,78,79,79,78,79,78,78,77,78,79,79,80,77,77,240,240,240,240,240,240,240,240,240,240,240,240,240,240,240,240,240,240,240,240,240,240,240,240,240,240,240,240,240,240,240,240,240,240,240,240,240,240,240,240,240,240,240,240,240,240,240,240,240,240,240,240,240,240,240,240,240,240,240,240,240,240,240,240,240,240,240,240,240,240,0,0,240,240,240,240,240,240,240
240,240,240,240,240,240,240,240,240,240,240,240,240,240,240,240,240,240,240,240,240,240,82,80,81,81,80,79,79,80,80,80,81,78,79,79,80,79,80,80,80,80,80,80,80,79,81,78,80,80,78,79,80,79,80,79,79,80,79,79,79,77,79,78,78,79,79,78,79,79,79,79,79,79,79,80,80,79,80,78,79,79,79,79,78,79,78,78,78,79,79,78,79,78,79,78,79,79,78,79,79,79,79,80,79,79,79,78,79,77,79,77,78,79,78,78,78,78,76,76,77,77,77,78,77,77,78,78,77,78,75,75,75,76,76,76,76,76,75,76,76,75,78,76,78,79,78,79,78,77,79,78,79,79,78,78,80,77,78,77,78,78,78,79,79,77,79,78,78,80,80,77,80,80,80,77,76,77,80,78,77,78,77,77,77,78,77,77,77,77,77,77,77,76,77,78,77,78,78,77,76,77,77,78,77,77,77,77,77,77,77,78,77,79,77,78,78,79,77,78,77,77,78,77,78,78,78,78,77,78,78,78,77,79,78,79,79,78,79,78,82,79,79,81,80,79,80,79,79,79,79,79,79,79,79,76,77,77,75,74,74,74,75,74,75,75,74,74,75,74,74,74,73,73,73,73,73,72,72,72,71,74,75,75,76,77,77,77,78,78,79,78,79,79,78,79,78,78,77,78,80,80,80,77,78,240,240,240,240,240,240,240,240,240,240,240,240,240,240,240,240,240,240,240,240,240,240,240,240,240,240,240,240,240,240,240,240,240,240,240,240,240,240,240,240,240,240,240,240,240,240,240,240,240,240,240,240,240,240,240,240,240,240,240,240,240,240,240,240,240,240,240,240,240,240,0,0,240,240,240,240,240,240,240
240,240,240,240,240,240,240,240,240,240,240,240,240,240,240,240,240,240,240,240,240,240,82,80,80,81,80,79,79,80,80,80,81,78,79,80,80,79,80,80,80,80,80,80,80,79,81,78,80,81,78,79,80,79,80,79,79,80,79,79,79,77,79,78,78,78,79,78,79,79,79,79,79,79,79,80,81,79,80,79,80,79,79,79,78,79,79,78,78,79,79,78,79,78,79,78,79,78,78,79,79,78,79,80,79,78,79,78,79,77,79,77,78,79,78,78,78,78,76,76,77,77,77,77,77,77,78,77,77,77,74,75,75,75,76,75,76,76,75,76,76,75,77,76,77,79,78,78,77,77,79,78,78,79,78,78,80,77,78,77,78,78,78,79,79,77,79,78,78,80,80,77,80,80,81,77,76,78,81,78,77,78,77,77,78,78,77,77,77,77,77,77,77,76,77,78,77,78,78,77,76,77,77,78,77,77,77,77,77,77,76,78,77,78,78,78,77,78,77,78,77,77,78,78,78,78,78,78,77,78,78,78,78,79,78,79,79,78,79,78,82,79,79,81,80,79,80,80,79,80,79,79,79,79,79,76,77,78,75,74,74,74,74,74,74,74,74,74,74,74,74,74,73,73,73,73,73,72,73,73,72,75,75,76,77,77,77,77,78,78,79,78,79,79,79,79,78,79,77,79,80,80,80,78,79,240,240,240,240,240,240,240,240,240,240,240,240,240,240,240,240,240,240,240,240,240,240,240,240,240,240,240,240,240,240,240,240,240,240,240,240,240,240,240,240,240,240,240,240,240,240,240,240,240,240,240,240,240,240,240,240,240,240,240,240,240,240,240,240,240,240,240,240,240,240,0,0,240,240,240,240,240,240,240
240,240,240,240,240,240,240,240,240,240,240,240,240,240,240,240,240,240,240,240,240,240,82,80,80,80,80,79,79,79,80,80,81,78,79,80,80,79,80,80,80,80,80,80,81,79,81,79,80,81,78,79,79,79,79,79,79,79,79,79,79,77,79,78,78,78,79,78,79,79,79,79,79,79,78,80,81,80,80,79,80,80,80,80,79,80,79,79,79,80,79,78,79,78,79,78,79,78,78,78,79,78,78,80,78,78,78,78,79,77,78,77,78,79,78,78,78,78,75,76,77,77,77,77,77,77,78,77,77,77,74,75,75,75,75,75,76,76,75,76,75,74,77,76,77,79,78,78,77,77,79,78,78,79,77,78,79,77,78,77,78,78,78,79,79,77,79,78,78,80,80,77,80,81,81,78,77,78,81,78,77,78,77,77,78,78,77,77,77,77,77,77,77,77,77,78,77,78,78,77,76,77,77,78,77,77,77,77,77,77,77,78,77,79,78,78,78,78,77,78,77,78,78,78,78,78,78,78,77,78,79,78,78,79,79,79,79,78,80,78,82,79,79,81,80,80,80,80,79,80,79,79,79,78,79,76,77,77,74,74,73,73,73,73,73,74,73,73,74,74,73,73,73,73,73,73,73,73,73,73,72,75,75,76,77,77,77,77,78,78,79,78,79,79,79,79,78,79,77,79,80,80,80,78,79,240,240,240,240,240,240,240,240,240,240,240,240,240,240,240,240,240,240,240,240,240,240,240,240,240,240,240,240,240,240,240,240,240,240,240,240,240,240,240,240,240,240,240,240,240,240,240,240,240,240,240,240,240,240,240,240,240,240,240,240,240,240,240,240,240,240,240,240,240,240,0,0,240,240,240,240,240,240,240
240,240,240,240,240,240,240,240,240,240,240,240,240,240,240,240,240,240,240,240,240,240,81,80,80,80,80,79,79,79,80,80,81,78,79,80,80,79,80,80,80,80,80,80,81,80,81,79,80,81,78,79,79,79,79,79,79,79,79,78,79,77,79,78,78,78,79,78,79,79,79,79,79,79,78,81,81,81,80,80,81,80,80,80,79,80,79,79,79,80,79,78,79,78,79,78,79,78,78,78,79,78,78,79,78,78,78,78,78,77,78,77,78,79,77,78,78,78,75,76,77,77,77,77,77,77,78,77,77,77,74,75,75,75,75,75,75,76,75,76,76,75,77,76,78,79,78,78,77,77,79,78,78,78,77,78,79,77,78,77,78,78,78,79,79,77,79,78,78,80,80,77,80,81,81,78,77,78,81,78,77,78,77,77,78,78,77,77,77,77,77,77,77,77,77,78,77,78,78,77,76,78,77,78,77,77,77,77,77,77,77,78,77,79,78,78,78,78,77,78,77,78,78,78,78,78,78,78,77,78,78,78,78,79,79,79,79,78,80,78,82,79,79,81,80,80,80,80,80,80,79,80,79,78,79,76,77,77,74,73,73,72,73,73,73,73,73,73,73,74,73,73,73,72,73,73,73,73,73,73,72,75,75,76,77,77,77,77,78,78,79,78,79,79,78,79,78,79,77,79,80,79,80,77,79,76,240,83,84,84,240,240,240,240,240,240,240,240,240,240,240,240,240,240,240,240,240,240,240,240,240,240,240,240,240,240,240,240,240,240,240,240,240,240,240,240,240,240,240,240,240,240,240,240,240,240,240,240,240,240,240,240,240,240,240,240,240,240,240,240,240,240,240,240,240,0,0,240,240,240,240,240,240,240
240,240,240,240,240,240,240,240,240,240,240,240,240,240,240,240,240,240,240,240,240,240,81,80,80,80,80,79,79,79,80,80,81,78,79,80,79,79,80,80,80,80,80,80,81,80,81,79,80,81,78,79,79,79,79,79,79,79,79,78,79,77,79,78,78,78,79,78,79,79,79,79,79,79,79,81,81,82,80,81,81,80,80,81,79,80,79,79,79,80,79,78,79,78,79,78,79,78,78,78,78,78,78,79,78,78,78,77,78,77,78,76,78,79,78,78,78,79,76,76,77,78,77,78,78,77,78,77,77,77,74,75,75,75,75,75,75,76,75,76,76,75,77,76,77,79,78,78,77,77,79,78,78,78,77,78,79,77,78,77,78,78,78,79,79,77,79,78,78,80,80,77,80,81,81,78,77,78,81,78,77,78,77,77,78,78,77,77,77,77,77,78,77,77,77,78,77,78,78,77,76,78,77,78,77,77,77,77,77,77,77,78,77,79,78,78,78,78,77,78,77,78,78,78,79,78,78,78,77,78,78,78,78,79,79,79,79,78,80,77,82,79,79,81,80,80,80,80,79,79,79,79,79,78,79,76,77,77,74,73,73,72,73,73,73,73,73,73,73,73,73,73,73,73,73,73,73,73,73,74,73,76,76,77,77,77,77,77,78,77,79,78,79,79,78,79,78,79,77,79,80,80,80,77,79,76,82,82,83,83,240,240,240,240,240,240,240,240,240,240,240,240,240,240,240,240,240,240,240,240,240,240,240,240,240,240,240,240,240,240,240,240,240,240,240,240,240,240,240,240,240,240,240,240,240,240,240,240,240,240,240,240,240,240,240,240,240,240,240,240,240,240,240,240,240,0,0,240,240,240,240,240,240,240
240,240,240,240,240,240,240,240,240,240,240,240,240,240,240,240,240,240,240,240,240,240,81,80,80,80,80,79,79,79,80,80,81,78,79,80,79,79,80,80,80,80,80,80,81,80,81,79,80,81,78,79,79,79,79,80,79,79,79,78,79,77,79,78,78,78,79,79,79,79,79,79,80,80,80,81,81,82,81,81,81,80,80,81,80,80,80,79,79,80,79,78,79,78,79,78,79,78,77,78,78,78,78,79,78,77,77,77,78,76,78,76,78,78,78,78,78,79,76,76,77,78,77,78,78,77,78,77,77,77,74,75,75,75,75,75,75,76,76,76,76,75,77,76,77,79,78,78,77,77,79,78,78,78,77,78,79,77,78,77,78,78,78,79,79,77,78,78,78,79,79,77,80,81,81,78,76,78,81,79,77,78,77,77,78,78,78,78,78,77,77,78,77,77,77,78,77,78,78,77,77,78,77,78,77,77,77,77,77,77,76,78,77,79,78,78,78,78,77,78,77,77,78,78,78,78,78,78,77,78,78,78,78,79,79,79,79,78,80,77,82,79,79,81,80,80,80,80,79,79,79,79,79,78,78,75,77,77,74,73,73,72,73,73,73,73,73,73,73,74,73,73,73,73,73,73,74,73,74,74,73,76,76,77,77,77,77,77,78,77,79,78,78,78,78,79,78,79,77,79,79,79,80,77,80,76,81,81,81,81,240,240,240,240,240,240,240,240,240,240,240,240,240,240,240,240,240,240,240,240,240,240,240,240,240,240,240,240,240,240,240,240,240,240,240,240,240,240,240,240,240,240,240,240,240,240,240,240,240,240,240,240,240,240,240,240,240,240,240,240,240,240,240,240,240,0,0,240,240,240,240,240,240,240
240,240,240,240,240,240,240,240,240,240,240,240,240,240,240,240,240,240,240,240,240,240,81,80,80,80,80,79,79,79,80,80,81,78,79,80,79,79,79,80,79,80,80,80,81,79,81,79,80,81,78,79,79,79,79,80,79,79,79,78,79,77,79,78,78,78,79,79,79,79,79,80,81,80,80,82,81,82,80,81,81,80,80,81,80,80,79,79,79,80,79,79,79,78,79,78,79,78,77,78,78,77,77,79,77,77,77,77,77,76,77,76,77,78,77,78,78,78,76,76,77,78,77,78,78,77,78,77,77,77,74,75,75,75,75,75,75,76,76,76,76,75,77,76,77,79,78,78,77,77,79,78,78,78,77,77,79,77,78,77,78,78,78,78,79,77,78,78,78,79,79,77,80,81,81,77,76,79,80,79,77,78,77,77,78,78,78,78,78,78,78,78,77,77,77,78,78,78,78,77,77,78,77,78,77,77,77,77,77,77,76,77,77,78,78,78,77,78,77,77,77,77,78,77,78,78,78,78,78,78,78,78,78,79,79,79,79,78,80,78,82,79,79,82,80,80,80,80,79,79,79,79,79,78,78,76,77,77,74,73,73,73,73,73,73,73,73,73,73,74,73,73,73,73,73,73,73,73,74,74,73,76,76,77,76,76,76,76,78,77,79,78,78,78,78,78,78,78,77,79,79,79,80,77,79,76,81,82,82,82,240,240,240,240,240,240,240,240,240,240,240,240,240,240,240,240,240,240,240,240,240,240,240,240,240,240,240,240,240,240,240,240,240,240,240,240,240,240,240,240,240,240,240,240,240,240,240,240,240,240,240,240,240,240,240,240,240,240,240,240,240,240,240,240,240,0,0,240,240,240,240,240,240,240
240,240,240,240,240,240,240,240,240,240,240,240,240,240,240,240,240,240,240,240,240,240,81,80,80,80,80,79,79,79,80,80,81,78,79,80,79,79,79,80,79,79,80,80,81,79,81,79,79,81,78,79,79,79,79,80,79,79,79,78,79,77,79,79,78,78,79,79,79,79,79,79,80,79,80,81,81,81,80,80,80,80,80,81,80,80,80,79,80,80,79,79,79,78,79,78,79,78,77,78,78,77,77,78,77,77,77,77,77,76,77,76,77,78,77,78,78,78,76,76,78,78,77,78,78,77,78,77,77,77,74,75,75,75,75,75,75,76,76,76,76,75,78,76,77,79,78,78,77,77,79,78,78,78,77,77,79,77,77,77,78,78,77,78,78,77,78,78,77,79,79,77,79,80,81,77,77,79,79,79,77,78,77,77,78,78,78,78,78,78,78,78,77,77,78,79,78,78,78,77,77,78,77,78,77,77,77,77,77,77,76,77,77,78,78,77,77,78,76,77,77,77,78,77,78,78,78,78,78,78,78,78,78,79,79,80,79,79,80,78,82,79,79,82,80,80,80,80,79,79,79,79,79,78,78,76,77,77,74,74,73,73,73,73,73,73,73,73,73,74,73,73,73,73,73,73,73,73,73,74,73,76,76,77,76,76,76,76,78,77,79,78,78,78,78,78,77,78,77,79,79,79,80,77,80,76,80,82,82,83,240,240,240,240,240,240,240,240,240,240,240,240,240,240,240,240,240,240,240,240,240,240,240,240,240,240,240,240,240,240,240,240,240,240,240,240,240,240,240,240,240,240,240,240,240,240,240,240,240,240,240,240,240,240,240,240,240,240,240,240,240,240,240,240,240,0,0,240,240,240,240,240,240,240
240,240,240,240,240,240,240,240,240,240,240,240,240,240,240,240,240,240,240,240,240,240,81,80,79,80,80,79,79,79,80,80,80,78,79,80,78,79,79,80,79,80,80,80,81,79,81,79,79,81,78,79,79,79,79,79,79,79,79,78,79,77,79,79,78,79,79,79,80,80,79,79,81,80,80,81,80,81,80,80,80,80,80,81,80,80,80,79,80,80,79,79,79,78,79,78,79,78,77,78,78,77,77,78,77,77,76,76,77,76,77,76,77,77,77,77,78,78,76,76,78,78,78,78,78,77,79,78,77,77,75,75,75,76,76,76,76,76,76,76,76,75,78,76,77,79,78,79,77,77,79,78,78,78,77,77,79,77,77,77,78,78,77,78,78,77,78,77,77,78,78,76,79,80,80,77,76,78,78,78,77,78,77,77,78,79,78,78,78,78,78,78,78,78,78,79,78,79,78,78,77,78,77,78,77,77,77,77,77,77,76,77,76,78,77,77,77,78,76,77,76,77,78,77,78,78,78,78,78,78,78,78,78,79,79,80,79,78,80,78,82,79,79,82,80,80,80,80,79,79,79,79,79,78,78,76,77,77,74,74,73,73,73,73,73,73,73,73,73,74,73,73,73,73,73,73,73,72,73,73,73,76,75,77,76,76,76,76,78,77,79,78,78,78,78,78,77,78,77,79,79,80,80,77,79,76,78,81,240,240,240,240,240,240,240,240,240,240,240,240,240,240,240,240,240,240,240,240,240,240,240,240,240,240,240,240,240,240,240,240,240,240,240,240,240,240,240,240,240,240,240,240,240,240,240,240,240,240,240,240,240,240,240,240,240,240,240,240,240,240,240,240,240,240,240,0,0,240,240,240,240,240,240,240
240,240,240,240,240,240,240,240,240,240,240,240,240,240,240,240,240,240,240,240,240,240,81,80,79,80,80,79,79,79,80,80,80,78,79,80,78,79,79,79,79,79,80,80,81,79,81,79,79,81,78,79,79,79,79,79,79,79,79,78,79,77,79,79,78,79,79,79,80,80,79,79,81,80,80,81,80,81,80,80,80,80,80,81,80,80,80,79,80,80,79,79,79,78,79,78,79,78,78,78,78,77,77,78,77,77,76,76,76,75,77,76,77,77,77,77,78,78,76,77,78,79,78,78,79,77,79,78,78,77,75,75,75,76,75,76,76,76,76,76,76,75,78,76,77,78,78,79,77,77,80,78,78,78,77,77,79,77,77,77,78,78,77,78,78,77,78,77,77,78,78,76,78,80,80,77,76,78,77,78,77,77,77,77,78,79,78,78,78,78,78,79,78,78,78,79,78,79,78,78,77,78,77,78,77,77,77,77,77,77,76,77,76,77,77,77,77,78,76,77,76,77,78,77,78,78,78,78,78,78,78,78,78,79,79,79,79,78,80,77,82,78,79,82,80,80,80,80,79,79,79,79,79,78,78,76,77,77,75,74,73,73,73,73,73,73,73,73,73,74,73,73,73,73,73,73,73,72,73,73,73,76,75,77,76,76,76,76,78,77,79,78,78,78,78,78,78,79,77,79,79,80,80,77,79,76,78,81,240,240,240,240,240,240,240,240,240,240,240,240,240,240,240,240,240,240,240,240,240,240,240,240,240,240,240,240,240,240,240,240,240,240,240,240,240,240,240,240,240,240,240,240,240,240,240,240,240,240,240,240,240,240,240,240,240,240,240,240,240,240,240,240,240,240,240,0,0,240,240,240,240,240,240,240
240,240,240,240,240,240,240,240,240,240,240,240,240,240,240,240,240,240,240,240,240,240,81,80,79,80,80,79,79,79,80,80,80,79,79,80,78,79,79,79,79,79,79,80,81,79,81,79,78,81,78,79,79,79,79,79,79,78,79,78,79,77,79,79,78,79,79,79,79,79,78,79,81,79,80,80,80,80,79,79,80,79,80,81,80,80,80,79,80,79,79,79,79,79,79,79,79,78,78,78,78,77,77,78,77,77,76,76,76,75,77,76,76,76,77,77,78,78,76,77,78,79,78,78,79,77,79,78,78,77,75,75,75,75,75,75,76,76,76,76,76,75,78,76,77,78,78,79,77,77,80,78,78,78,78,77,79,77,77,77,78,78,77,78,78,77,77,77,77,78,78,76,78,79,79,77,77,78,77,77,77,77,77,77,78,79,79,78,78,78,78,79,78,78,78,79,79,79,78,78,77,78,77,79,77,77,77,77,77,77,76,77,76,77,77,77,77,77,76,77,76,77,78,77,78,78,78,78,78,78,78,78,78,79,79,79,79,78,79,77,82,78,78,82,80,80,80,80,79,79,79,79,79,78,78,76,77,77,75,74,74,73,74,73,73,73,73,74,73,74,73,73,73,73,73,72,73,71,73,73,73,76,75,77,76,76,76,76,78,77,79,78,78,78,78,79,78,79,77,79,80,80,80,77,79,76,77,81,82,240,240,240,240,240,240,240,240,240,240,240,240,240,240,240,240,240,240,240,240,240,240,240,240,240,79,76,77,77,77,77,76,76,75,76,74,76,75,240,240,240,240,240,240,240,240,240,240,240,240,240,240,240,240,240,240,240,240,240,240,240,240,240,240,240,240,0,0,240,240,240,240,240,240,240
240,240,240,240,240,240,240,240,240,240,240,240,240,240,240,240,240,240,240,240,240,240,81,81,79,80,80,79,79,80,80,80,81,79,79,80,78,79,79,79,79,79,79,79,81,79,81,79,78,81,78,79,78,78,78,79,79,78,79,78,79,77,79,79,78,79,79,79,79,79,78,79,80,79,79,79,79,79,79,79,79,79,80,81,80,80,80,79,80,79,79,79,79,79,79,79,79,78,78,78,78,77,76,78,77,77,76,76,76,75,76,76,76,76,77,77,78,78,76,77,78,79,78,78,79,77,79,78,78,77,75,75,75,75,75,75,76,76,76,76,76,75,78,76,77,78,78,79,77,77,80,78,78,78,78,77,79,77,77,77,78,78,77,78,78,76,77,77,77,78,78,76,78,79,79,77,77,78,77,77,77,77,77,77,78,79,79,78,78,78,78,79,78,78,78,79,79,79,78,78,77,78,77,79,77,77,77,77,77,77,76,77,76,77,77,77,76,77,76,77,76,77,78,77,78,78,78,78,78,78,78,78,78,79,79,79,79,78,79,77,82,78,78,82,80,80,80,79,79,79,79,79,79,78,78,76,78,77,75,74,74,74,74,74,74,74,73,74,74,74,74,73,73,73,73,73,73,71,73,73,73,75,74,77,76,76,76,76,78,77,79,78,78,78,78,79,78,79,78,79,80,80,80,77,79,75,76,79,240,240,240,240,240,240,240,240,240,240,240,240,240,240,240,240,240,240,240,240,240,240,83,83,81,80,80,79,79,79,79,79,78,78,78,77,77,77,77,240,240,240,240,240,240,240,240,240,240,240,240,240,240,240,240,240,240,240,240,240,240,240,240,240,240,240,240,0,0,240,240,240,240,240,240,240
240,240,240,240,240,240,240,240,240,240,240,240,240,240,240,240,240,240,240,240,240,240,81,81,79,80,80,79,79,80,80,80,80,79,79,81,78,79,78,79,79,79,79,79,80,79,81,79,78,81,78,78,78,78,78,79,79,78,79,78,79,77,79,79,78,79,79,79,79,80,79,79,81,79,79,79,80,79,79,79,79,80,81,81,80,80,80,80,80,79,79,80,79,79,79,79,79,78,78,78,78,77,76,78,77,76,76,76,76,75,76,76,76,76,77,77,78,78,76,77,78,79,78,78,79,77,79,78,78,77,76,75,75,75,76,76,76,76,76,77,77,76,79,77,78,78,78,79,78,78,80,78,78,79,78,78,79,77,77,77,78,78,77,78,78,76,77,77,77,78,78,77,77,79,79,77,77,78,77,78,77,78,77,78,78,79,79,78,78,78,78,78,78,78,78,79,78,79,77,77,77,78,77,79,77,77,77,77,77,77,76,76,76,77,77,77,76,77,76,77,76,77,78,77,78,78,78,79,78,78,79,78,78,79,79,80,79,78,79,77,82,78,78,82,80,80,80,79,79,79,79,79,79,78,78,76,78,77,75,74,74,74,74,74,74,74,73,74,74,74,74,73,73,73,73,73,73,71,73,73,73,75,74,77,76,76,76,76,78,78,79,78,78,78,79,79,78,79,78,79,79,80,80,77,78,75,240,240,240,240,240,240,240,240,240,240,240,240,240,240,240,240,240,240,240,240,240,240,240,240,240,82,81,80,80,79,79,80,80,80,79,78,78,78,78,79,78,240,240,240,240,240,240,240,240,240,240,240,240,240,240,240,240,240,240,240,240,240,240,240,240,240,240,240,240,0,0,240,240,240,240,240,240,240
240,240,240,240,240,240,240,240,240,240,240,240,240,240,240,240,240,240,240,240,240,240,81,81,79,80,80,79,79,80,80,80,80,79,79,81,78,79,78,79,79,79,79,79,80,79,81,79,77,80,77,78,78,78,78,79,78,78,78,78,78,77,79,79,78,79,79,79,79,80,79,79,80,79,79,79,79,79,79,79,79,79,81,81,80,81,80,79,80,80,79,80,79,79,79,79,79,78,78,78,78,76,76,77,77,76,75,76,76,75,76,76,76,76,77,77,78,78,76,77,78,79,78,78,79,77,79,78,78,77,76,76,76,76,76,76,76,76,76,77,78,76,79,77,78,78,78,79,78,78,80,78,79,79,78,78,78,77,77,77,78,78,77,78,78,76,77,77,77,77,78,77,77,79,79,77,77,78,77,78,77,78,77,78,78,79,79,78,78,78,78,79,78,78,78,79,78,79,77,77,77,78,77,79,77,77,77,77,77,77,76,77,76,77,77,77,77,77,76,77,76,77,78,77,78,79,78,79,78,78,78,78,78,80,80,80,79,79,80,78,82,78,78,82,80,80,80,80,79,79,79,79,78,78,78,76,78,77,75,74,74,74,74,74,74,74,73,74,74,74,74,73,73,73,73,73,73,71,73,73,73,75,74,77,75,76,76,76,78,77,79,78,78,78,78,79,78,79,78,79,79,79,79,77,78,75,240,240,240,240,240,240,240,240,240,240,240,240,240,240,240,240,240,240,240,240,240,240,240,82,82,82,81,80,81,80,80,80,80,80,80,79,79,79,80,79,79,80,240,240,240,240,240,240,240,240,240,240,240,240,240,240,240,240,240,240,240,240,240,240,240,240,240,240,240,0,0,240,240,240,240,240,240,240
240,240,240,240,240,240,240,240,240,240,240,240,240,240,240,240,240,240,240,240,240,240,81,81,79,80,80,79,80,80,80,80,80,79,79,80,78,79,79,79,79,79,79,79,80,79,81,79,77,80,77,78,78,78,78,78,78,78,78,78,78,77,79,79,78,79,79,79,79,80,79,79,80,79,79,79,79,79,79,79,79,79,80,81,80,81,80,79,80,80,79,80,79,79,79,79,79,78,78,78,78,76,76,77,76,76,75,76,76,75,76,76,76,76,77,77,78,78,76,77,78,79,78,79,79,77,79,78,78,77,77,76,77,77,77,77,77,77,77,78,79,77,80,78,78,79,78,79,78,78,80,79,79,79,78,78,78,77,77,77,78,78,77,78,78,76,77,77,77,77,78,77,77,79,78,77,77,78,77,77,77,78,77,77,77,78,79,78,78,78,78,78,77,78,78,79,79,79,78,77,77,78,78,79,77,77,77,77,77,77,76,77,76,77,77,77,77,77,76,77,76,77,78,77,78,79,78,79,78,78,78,78,79,80,80,80,79,79,81,78,83,78,78,83,81,80,80,80,79,79,79,79,78,78,78,76,78,77,75,74,74,74,74,74,74,74,74,74,74,74,74,73,73,73,73,73,73,71,73,72,73,75,74,76,75,75,75,75,78,77,79,78,78,78,78,78,78,79,77,79,79,79,79,76,77,75,240,240,240,240,240,240,240,240,240,240,240,240,240,240,240,240,240,240,240,240,240,240,83,81,82,81,81,80,81,80,80,80,80,80,80,80,79,79,80,80,80,80,81,240,240,240,240,240,240,240,240,240,240,240,240,240,240,240,240,240,240,240,240,240,240,240,240,240,240,0,0,240,240,240,240,240,240,240
240,240,240,240,240,240,240,240,240,240,240,240,240,240,240,240,240,240,240,240,240,240,81,81,79,80,80,79,80,80,80,80,80,80,79,81,78,79,79,79,79,79,79,79,80,79,81,79,77,80,77,78,78,78,78,78,78,78,78,78,78,77,79,79,78,79,79,79,79,80,78,79,80,79,79,79,79,79,79,78,79,79,80,81,80,81,80,80,80,80,79,80,79,79,79,79,79,79,78,78,77,76,76,77,76,76,75,76,76,75,76,76,76,76,77,77,78,79,77,78,78,79,78,79,79,78,79,79,79,77,78,77,78,78,78,78,78,78,78,79,80,78,80,78,78,79,79,80,78,78,81,79,79,79,78,78,79,78,77,77,78,78,77,78,78,76,77,77,77,77,77,77,77,79,78,77,77,78,77,77,77,78,77,77,77,79,79,78,78,79,79,79,78,79,79,80,79,80,78,78,77,78,78,79,78,78,77,77,78,77,76,77,76,77,78,77,77,77,76,77,76,77,78,77,78,79,78,78,78,77,78,78,79,80,80,80,79,79,81,78,83,78,78,83,81,80,80,80,79,79,79,79,78,78,78,76,78,77,75,74,75,74,74,74,74,74,73,74,74,74,74,73,73,73,73,73,73,71,73,72,73,75,74,76,75,75,75,75,78,77,78,78,78,78,78,78,78,79,78,79,79,79,79,77,77,75,76,78,77,77,78,77,240,240,240,240,240,240,77,80,240,85,240,76,75,81,82,82,82,82,81,81,80,80,81,80,80,81,80,80,80,80,79,79,80,79,80,80,81,78,240,240,240,240,240,240,240,240,240,240,240,240,240,240,240,240,240,240,240,240,240,240,240,240,240,0,0,240,240,240,240,240,240,240
240,240,240,240,240,240,240,240,240,240,240,240,240,240,240,240,240,240,240,240,240,240,81,81,80,80,80,79,80,80,80,80,80,80,79,81,78,79,79,80,80,79,80,79,80,79,80,79,77,80,77,78,78,78,78,78,78,78,78,78,78,77,79,79,78,79,79,79,79,80,79,79,80,79,80,79,80,79,79,78,79,80,80,82,80,81,80,80,80,80,79,80,79,79,79,79,79,79,78,78,77,76,76,77,76,76,75,76,76,75,76,76,76,76,77,77,79,79,77,78,79,79,78,79,80,78,79,79,79,78,79,77,79,79,80,79,79,79,79,80,81,79,81,79,79,79,80,80,79,78,81,79,79,79,79,78,79,78,77,77,78,78,77,78,78,76,77,77,77,77,77,77,77,78,78,77,77,78,77,77,77,78,77,77,77,79,80,79,80,80,79,80,79,80,82,82,82,81,79,78,78,79,79,79,78,78,78,78,78,77,77,77,77,77,78,77,78,78,76,77,76,77,77,77,78,79,78,79,78,77,77,77,78,80,79,80,79,79,82,77,83,78,77,83,80,80,80,79,79,79,79,79,78,78,78,77,78,77,75,74,75,74,75,74,74,74,74,74,74,74,74,73,73,73,73,72,73,71,73,72,73,75,74,76,75,75,75,75,78,77,78,78,78,78,78,78,78,78,78,79,79,79,79,77,78,76,77,79,78,78,79,78,78,77,76,78,76,77,78,78,81,79,72,75,76,81,81,81,82,81,81,81,81,80,81,80,81,81,80,80,80,80,80,79,79,79,80,79,80,78,78,77,77,84,84,85,85,84,84,84,84,84,84,84,84,85,85,85,83,84,84,84,85,84,84,240,0,240,240,240,240,240,240,240
240,240,240,240,240,240,240,240,240,240,240,240,240,240,240,240,240,240,240,240,240,240,81,81,80,80,81,79,80,80,81,80,80,80,79,81,78,79,79,80,80,79,79,79,80,79,80,79,77,80,77,78,78,78,78,78,78,78,79,78,79,78,79,79,78,79,79,79,80,80,79,79,80,79,80,79,80,79,79,78,79,80,79,82,80,81,80,80,80,80,79,79,79,79,79,79,79,79,78,78,78,76,76,77,76,76,75,77,76,76,76,76,76,76,78,77,79,79,77,78,79,80,78,79,80,78,80,79,80,78,80,78,80,80,81,80,80,79,80,80,82,80,82,79,79,79,80,81,79,79,81,79,79,79,79,78,79,78,77,78,78,77,77,78,78,76,77,77,77,77,77,77,77,78,78,77,77,78,77,77,77,78,77,77,77,80,82,81,81,82,80,82,240,82,87,86,85,83,79,78,77,78,79,79,79,79,78,78,78,77,77,77,76,77,77,77,78,77,76,77,75,76,76,76,240,240,240,240,240,240,240,240,240,240,240,240,240,240,240,240,240,77,76,83,80,80,79,79,79,79,79,79,78,78,78,77,78,77,75,75,75,75,75,74,74,74,74,74,74,74,74,73,74,73,73,72,72,71,73,72,73,75,74,76,75,75,75,75,77,77,78,78,77,78,78,78,77,78,78,79,78,79,79,77,78,77,77,79,78,79,79,79,79,78,77,79,77,77,78,77,79,78,72,75,78,81,81,81,83,81,81,81,81,81,81,80,81,81,80,80,80,80,80,79,80,80,80,79,79,79,79,78,78,83,81,83,82,82,82,82,82,82,82,83,83,84,84,83,82,84,83,84,85,84,84,240,240,240,240,240,240,240,240,240
240,240,240,240,240,240,240,240,240,240,240,240,240,240,240,240,240,240,240,240,240,240,81,81,80,81,81,79,80,80,81,80,80,80,79,81,78,79,79,79,80,79,79,79,80,79,80,78,77,80,77,78,78,78,78,78,78,78,79,78,79,78,79,80,79,79,79,80,80,80,79,79,80,79,80,80,80,79,79,78,79,80,79,81,80,81,80,80,80,80,79,79,79,79,79,80,79,79,78,78,78,76,76,77,76,76,75,77,76,76,76,76,76,76,78,77,79,79,77,79,79,80,79,80,80,78,80,79,80,78,81,78,81,81,81,81,80,80,80,81,82,80,82,80,79,79,81,81,79,79,82,79,80,79,79,78,79,78,78,78,78,77,77,78,78,76,77,77,77,77,77,77,77,78,78,77,77,78,77,77,77,78,77,78,78,80,82,81,82,83,81,84,240,240,240,240,240,240,240,75,76,77,79,79,80,81,78,77,77,76,76,75,75,76,75,240,76,76,74,74,71,75,240,240,240,240,240,240,240,240,240,240,240,240,240,240,240,240,240,240,240,76,76,83,80,79,79,79,79,79,78,78,78,78,78,77,78,77,75,75,76,75,76,75,75,74,74,74,74,74,74,73,74,74,73,73,72,70,73,72,73,75,74,75,75,74,74,75,78,77,78,78,77,78,78,78,77,78,78,79,78,80,79,77,78,77,78,80,79,79,79,79,79,78,78,79,77,78,78,78,79,79,73,79,80,81,81,81,83,81,81,81,81,81,81,81,81,81,81,80,80,80,80,79,80,80,81,80,80,80,80,79,80,82,81,82,82,82,82,82,82,82,83,82,82,83,83,83,81,83,82,83,83,83,83,83,83,240,240,240,240,240,240,240
240,240,240,240,240,240,240,240,240,240,240,240,240,240,240,240,240,240,240,240,240,240,81,81,80,81,81,79,80,80,81,80,80,80,79,81,78,79,79,79,80,79,79,79,80,79,80,78,77,79,78,78,78,78,78,78,78,78,79,78,79,78,79,80,79,79,79,80,80,80,79,79,80,79,80,80,80,79,79,78,79,80,79,81,80,80,80,80,80,79,79,79,79,79,79,80,79,79,78,78,78,76,76,77,76,76,76,77,76,76,77,76,76,76,78,77,79,79,77,79,79,80,79,80,80,79,80,79,80,78,81,78,81,81,81,80,81,80,80,80,82,80,82,80,79,79,81,81,79,79,82,79,80,79,79,78,79,78,78,78,78,77,77,78,78,76,77,77,77,77,77,77,77,78,78,77,77,78,77,77,76,78,77,78,78,80,83,81,82,84,82,240,240,240,240,240,240,240,240,240,240,240,79,79,80,81,77,76,77,76,75,75,74,75,240,240,240,240,240,240,240,240,240,240,240,240,240,240,240,240,240,240,240,240,240,240,240,240,240,240,240,76,76,83,80,79,79,79,79,79,78,78,78,78,78,77,78,77,75,75,76,75,76,75,75,74,74,74,74,74,74,73,74,73,73,72,72,69,72,70,73,75,73,75,74,74,74,75,78,77,79,78,78,78,78,78,77,78,78,79,78,80,79,78,79,78,78,80,79,79,79,79,79,78,78,79,77,78,78,77,79,79,74,80,79,80,80,80,82,81,81,81,81,81,81,81,81,81,81,80,80,80,81,80,80,81,81,80,80,80,80,80,80,82,81,81,82,81,82,82,81,82,82,82,82,82,82,82,81,82,82,82,83,82,83,83,83,240,240,240,240,240,240,240
240,240,240,240,240,240,240,240,240,240,240,240,240,240,240,240,240,240,240,240,240,240,81,81,80,81,81,79,80,80,81,81,81,81,80,81,78,80,79,79,80,79,79,79,80,79,80,78,77,79,78,78,78,78,78,78,79,78,79,78,79,78,80,80,79,79,79,79,80,80,79,79,80,79,80,79,79,78,79,78,78,79,79,81,79,80,80,80,79,79,79,79,79,79,79,80,79,79,78,79,78,77,76,78,77,77,76,77,76,76,77,76,76,76,78,77,79,79,78,79,79,79,79,79,80,79,80,79,80,78,81,78,82,81,81,81,81,80,81,81,82,80,82,80,80,79,81,81,80,79,82,79,80,79,79,78,79,78,78,78,78,77,77,78,78,76,77,77,77,77,78,77,77,78,78,77,77,78,77,77,76,77,76,240,77,79,83,81,82,85,240,240,240,240,240,240,240,240,240,240,77,77,79,79,79,79,77,76,76,75,75,74,74,74,74,240,240,240,240,240,240,240,240,240,240,240,240,240,240,240,240,240,240,240,240,240,240,240,240,240,240,77,76,84,80,79,80,79,79,79,78,78,78,78,78,77,78,77,75,75,76,75,76,75,74,74,74,74,74,74,74,73,74,73,73,71,71,68,71,67,72,75,73,75,75,74,74,75,78,78,79,78,78,78,78,78,78,79,79,79,79,80,80,78,79,78,79,80,79,79,79,80,79,78,79,80,78,78,78,78,78,78,75,81,79,81,80,81,82,82,81,81,81,81,81,81,81,81,81,81,81,80,81,80,80,81,81,80,81,81,81,80,80,82,81,81,82,81,82,81,82,82,82,82,82,82,82,82,81,82,82,82,82,82,82,82,83,240,240,240,240,240,240,240
240,240,240,240,240,240,240,240,240,240,240,240,240,240,240,240,240,240,240,240,240,240,81,81,80,80,81,79,80,80,81,81,81,81,80,81,79,80,79,80,80,79,79,79,80,79,80,79,77,79,78,78,78,78,78,78,79,78,79,78,79,78,80,80,79,79,79,79,80,80,79,79,80,79,80,79,79,78,79,78,78,79,79,80,80,80,81,80,79,79,79,79,79,79,80,80,79,79,79,79,78,77,76,78,77,77,76,77,76,76,77,77,76,77,78,77,79,79,78,79,79,79,79,79,80,79,80,79,80,79,81,79,82,81,82,81,81,80,81,81,82,80,82,80,80,79,81,81,80,79,82,79,80,79,79,78,79,79,78,78,78,77,77,78,78,76,77,77,77,77,78,78,77,78,78,77,78,78,77,76,76,77,76,77,77,78,80,79,79,82,81,84,85,240,240,240,240,240,240,240,240,240,240,78,240,78,75,75,76,75,75,74,74,74,74,240,240,240,240,240,240,240,240,240,240,240,240,240,240,240,240,240,240,240,240,240,240,240,240,240,240,77,77,84,80,79,80,79,79,79,79,78,78,78,77,77,78,77,75,75,76,75,76,75,74,74,74,74,74,74,74,73,74,73,74,71,71,69,72,69,72,76,74,76,75,75,75,76,79,79,79,79,79,79,79,79,78,80,79,80,79,80,80,79,79,79,79,79,79,80,79,80,79,79,79,80,78,78,78,77,78,78,76,81,79,81,81,81,82,82,81,81,81,81,81,81,81,81,81,81,80,80,81,80,80,80,81,80,81,81,81,80,80,82,81,81,81,81,82,81,81,81,82,81,82,82,82,82,81,81,82,82,82,82,82,82,82,240,240,240,240,240,240,240
240,240,240,240,240,240,240,240,240,240,240,240,240,240,240,240,240,240,240,240,240,240,81,81,79,80,81,80,80,81,81,81,81,81,80,81,79,80,80,80,80,80,80,80,80,79,79,79,77,79,78,79,78,78,78,78,79,79,79,79,79,79,80,80,79,79,79,80,80,80,79,79,79,80,80,80,79,79,79,78,78,79,80,80,80,80,81,80,79,80,79,79,79,79,80,80,79,79,79,79,78,77,76,78,77,77,76,77,77,76,77,77,77,77,78,77,79,79,78,79,79,79,79,79,80,79,80,79,80,79,81,79,82,82,82,82,82,81,81,82,82,81,82,80,80,79,81,81,80,79,82,79,80,79,79,78,79,79,78,78,78,78,77,78,79,76,78,78,78,78,78,78,77,79,78,78,78,79,77,76,77,78,76,78,77,78,79,79,79,81,79,81,81,81,240,240,240,240,240,240,240,240,240,240,240,240,240,74,75,75,75,74,75,74,74,240,240,240,240,240,240,240,240,240,240,240,240,240,240,240,240,240,240,240,240,240,240,240,240,240,240,79,78,84,80,79,80,79,79,79,78,78,78,78,77,76,78,77,75,75,76,75,75,75,74,75,74,74,74,74,75,74,74,74,74,71,71,70,73,71,72,76,74,77,76,76,76,76,79,80,79,79,80,79,79,80,79,80,80,80,79,81,80,79,79,79,80,80,79,80,79,80,79,79,79,80,78,78,79,77,78,78,76,81,79,81,81,82,82,82,81,81,81,81,81,81,81,81,81,81,81,80,81,80,80,80,81,80,81,81,81,80,80,82,81,81,81,81,82,81,82,81,82,81,82,82,82,82,81,81,82,82,82,82,82,82,83,240,240,240,240,240,240,240
240,240,240,240,240,240,240,240,240,240,240,240,240,240,240,240,240,240,240,240,240,240,81,81,80,80,81,80,81,81,81,81,81,82,81,81,79,80,80,80,80,80,80,80,80,80,79,79,78,79,78,79,79,78,78,78,79,79,79,79,79,79,80,80,79,79,79,80,80,80,79,79,79,80,79,80,79,79,79,79,78,79,80,80,79,80,81,80,80,80,79,79,80,80,80,80,79,79,79,79,78,77,77,78,77,77,77,78,77,76,77,77,77,77,78,77,79,79,78,79,79,80,79,80,80,79,80,80,81,80,82,80,83,82,82,82,82,82,82,82,83,82,82,81,81,80,82,81,80,79,82,80,80,79,79,79,79,79,78,79,79,78,78,79,79,77,78,78,78,78,79,79,78,79,78,78,78,79,77,77,78,78,77,78,77,78,78,78,78,80,78,79,78,78,80,240,240,240,240,240,240,240,240,240,240,240,240,74,76,75,76,75,76,75,75,240,240,240,240,240,240,240,240,240,240,240,240,240,240,240,240,240,240,240,240,240,240,240,240,240,240,80,80,84,80,79,80,79,79,78,78,78,77,78,77,76,77,76,75,75,76,75,76,75,75,75,75,75,75,75,75,74,75,74,75,72,72,71,73,71,72,75,74,77,76,76,76,77,79,80,79,78,80,79,79,80,79,81,80,80,79,81,80,79,80,79,80,80,80,80,79,80,79,79,79,80,78,78,79,77,78,78,76,81,80,81,81,82,82,82,81,81,81,81,81,81,81,81,81,81,81,81,81,80,80,80,81,80,81,81,81,80,80,82,82,81,81,81,82,81,82,81,82,81,82,82,82,82,81,81,82,82,82,82,82,82,83,240,240,240,240,240,240,240
240,240,240,240,240,240,240,240,240,240,240,240,240,240,240,240,240,240,240,240,240,240,81,81,80,81,81,80,81,81,81,81,81,82,81,81,80,81,80,80,80,80,80,80,80,80,79,79,78,79,79,79,79,78,78,79,79,79,79,79,79,79,80,80,80,80,79,80,80,80,79,79,79,79,79,80,79,79,79,79,79,79,79,80,79,80,81,80,80,80,79,79,80,80,80,80,80,80,79,79,79,77,77,78,77,77,78,78,77,77,77,77,77,77,78,78,79,80,78,80,80,80,79,80,81,80,81,81,82,82,84,83,84,84,83,84,83,84,84,84,84,83,84,83,82,81,83,82,81,80,83,80,80,80,79,79,79,79,78,79,79,78,78,79,79,77,78,78,78,78,79,79,78,80,78,79,79,79,78,77,78,79,78,79,78,78,78,78,78,79,77,78,78,77,78,240,240,240,240,240,240,240,240,240,240,240,240,240,76,76,77,76,77,76,76,240,77,240,240,240,240,78,79,240,240,240,240,240,240,240,240,240,240,240,240,240,240,240,240,240,240,240,82,84,80,79,80,79,79,78,77,77,77,77,76,75,76,75,75,75,77,75,76,75,75,76,75,75,75,75,76,75,75,74,76,73,73,72,74,240,74,77,76,78,76,77,76,78,79,80,78,78,80,78,79,79,79,81,80,80,79,80,80,79,80,80,80,80,80,80,80,80,79,79,79,80,79,79,80,78,79,79,78,82,81,81,82,82,82,82,82,81,82,81,81,81,81,81,81,81,81,81,81,80,81,80,81,80,81,81,81,81,80,82,82,81,81,81,81,81,82,81,82,82,82,82,82,82,81,81,82,81,82,82,82,82,83,240,240,240,240,240,240,240
240,240,240,240,240,240,240,240,240,240,240,240,240,240,240,240,240,240,240,240,240,240,81,81,80,81,81,81,81,81,81,82,81,82,81,81,80,81,80,80,80,80,80,80,80,80,79,79,78,79,79,79,79,79,78,79,79,79,80,79,80,80,80,80,80,80,80,80,80,80,80,79,79,79,79,80,79,79,79,79,79,79,79,80,79,80,81,80,80,80,79,79,80,80,81,81,80,80,79,79,79,77,78,78,77,78,78,79,77,77,77,77,78,78,78,78,80,80,79,81,81,81,81,82,82,82,83,83,84,84,85,85,86,85,84,85,85,85,85,86,86,86,86,85,84,83,84,83,82,80,83,80,81,80,80,79,79,79,78,79,79,78,78,79,79,77,78,78,78,78,79,79,78,80,78,79,79,79,78,78,79,79,78,79,78,78,78,77,77,79,77,78,77,77,240,240,240,68,240,240,69,240,240,240,240,240,240,240,75,76,77,76,78,77,77,240,240,240,240,240,240,81,240,240,240,240,240,240,240,240,240,240,240,240,240,240,240,240,240,240,240,240,240,240,79,79,80,79,78,76,75,75,75,76,75,73,74,74,75,75,76,76,76,76,76,76,76,76,76,76,77,76,77,76,79,75,76,76,78,77,78,79,79,80,79,78,78,79,80,80,78,78,79,78,79,79,79,81,80,80,79,81,80,79,80,80,80,80,80,80,80,80,80,80,80,81,79,80,80,79,80,80,79,82,82,81,82,82,82,82,81,81,81,81,81,81,81,81,81,81,81,81,81,81,81,81,81,81,82,82,81,81,81,82,82,81,82,81,81,82,82,81,82,82,82,82,82,82,81,81,82,81,82,82,82,82,83,240,240,240,240,240,240,240
240,240,240,240,240,240,240,240,240,240,240,240,240,240,240,240,240,240,240,240,240,240,81,81,81,80,81,81,81,81,80,82,81,82,81,81,80,81,81,79,80,80,80,80,80,80,79,79,78,79,79,79,79,79,79,79,79,80,80,80,80,80,80,80,80,80,80,80,81,81,80,79,79,80,80,80,79,78,79,79,78,79,79,79,79,80,81,80,80,80,79,79,80,80,81,81,80,80,80,80,79,78,78,79,78,79,79,80,78,78,77,78,78,78,79,79,81,82,81,83,83,83,83,84,84,84,85,85,85,86,87,87,87,86,85,85,85,86,86,87,87,87,87,87,86,85,85,84,83,81,84,81,81,81,80,79,79,80,78,79,79,78,78,79,79,77,78,78,78,78,79,79,78,80,79,79,79,79,78,78,79,79,77,79,78,77,78,77,77,79,77,77,77,76,240,240,240,68,69,70,71,240,240,240,240,240,240,240,240,76,77,77,79,240,77,240,240,240,240,240,240,240,240,240,240,240,240,240,240,240,240,240,240,240,240,240,240,240,240,240,240,240,240,240,240,240,240,240,240,240,240,240,240,75,75,73,73,73,74,74,76,75,76,76,76,76,76,75,75,75,240,76,76,80,80,79,79,79,79,78,79,79,79,79,79,78,79,79,79,79,78,77,79,78,79,79,79,81,81,80,79,81,80,80,80,80,80,81,81,80,80,80,80,80,80,81,80,80,80,80,80,81,80,82,82,81,82,82,81,82,81,81,81,81,81,81,81,81,81,81,81,81,81,81,81,81,82,81,82,82,82,81,81,82,82,81,82,81,81,82,82,81,82,82,82,82,82,82,81,81,82,81,82,82,82,82,82,240,240,240,240,240,240,240
240,240,240,240,240,240,240,240,240,240,240,240,240,240,240,240,240,240,240,240,240,240,81,81,81,80,81,81,81,81,81,82,81,82,81,81,80,81,81,79,81,80,80,80,80,80,79,79,79,79,80,80,79,79,79,79,80,80,80,80,80,80,81,80,80,80,80,80,80,80,80,79,79,79,79,80,79,78,79,78,78,79,79,79,79,80,81,80,80,81,80,80,80,81,81,81,81,81,80,81,80,79,80,80,79,80,80,80,78,78,78,78,79,79,80,80,82,83,83,84,84,85,85,85,86,86,86,87,87,88,88,89,88,87,85,85,85,86,87,87,89,88,89,89,87,86,86,84,83,82,84,82,82,81,81,80,79,80,79,79,79,78,78,79,79,77,79,78,79,78,79,79,78,80,78,79,79,80,77,77,79,78,77,78,78,77,77,77,77,78,77,77,77,76,240,240,67,68,69,70,71,240,240,240,240,240,240,240,240,76,77,77,79,240,77,240,240,240,240,240,240,240,240,240,240,240,240,240,240,240,240,240,240,240,240,240,240,240,240,240,240,240,240,240,240,240,240,240,240,240,240,240,240,240,240,71,73,73,73,74,75,74,74,74,75,75,75,72,240,240,240,240,77,240,82,83,82,81,81,79,79,79,79,79,79,78,79,79,79,79,78,77,79,78,79,79,79,81,81,80,79,81,80,80,80,81,80,81,81,80,80,81,80,80,81,81,80,80,80,80,80,81,80,81,82,81,81,82,81,81,81,81,81,81,81,81,81,81,81,81,81,81,81,81,81,81,82,81,82,82,82,81,82,82,82,81,82,81,81,82,82,81,82,82,82,82,82,82,81,81,82,81,82,82,82,82,82,240,240,240,240,240,240,240
240,240,240,240,240,240,240,240,240,240,240,240,240,240,240,240,240,240,240,240,240,240,81,81,82,81,82,82,81,81,81,82,82,82,81,81,81,82,82,79,81,80,80,80,80,80,79,79,79,79,80,80,80,79,79,80,80,80,80,80,80,81,81,80,80,80,80,80,80,80,79,79,79,79,79,80,79,78,79,79,78,79,79,79,79,80,81,80,81,81,80,81,81,82,82,82,82,82,82,82,82,81,82,81,80,82,81,81,79,79,79,79,79,80,81,82,83,84,85,86,86,86,86,87,87,87,88,88,89,89,89,89,88,87,85,85,85,86,87,88,91,90,92,91,88,88,87,85,84,83,85,82,83,82,81,80,80,80,79,79,79,78,79,79,80,77,79,78,79,79,79,79,78,80,79,79,80,80,77,77,79,78,77,78,78,77,77,77,77,78,77,77,77,76,240,68,67,67,69,70,240,240,240,240,240,240,240,240,240,75,240,240,240,240,240,240,240,240,240,240,240,240,240,240,240,240,240,240,240,240,240,240,240,240,240,240,240,240,240,240,240,240,240,240,240,240,240,240,240,240,240,240,240,240,240,71,73,73,73,73,74,73,74,74,74,75,74,72,72,69,76,240,76,90,81,82,82,81,81,80,79,79,79,80,80,79,80,80,80,80,79,78,80,79,79,80,79,81,81,80,79,81,80,80,80,81,80,81,81,80,80,80,80,80,81,81,80,80,80,80,81,81,80,81,82,81,81,82,81,81,81,81,81,81,81,81,81,81,80,81,81,81,81,81,81,81,82,81,82,82,82,81,82,82,82,81,82,81,81,82,82,81,82,82,81,82,82,82,81,81,82,81,82,82,82,82,82,240,240,240,240,240,240,240
240,240,240,240,240,240,240,240,240,240,240,240,240,240,240,240,240,240,240,240,240,240,81,81,82,81,82,82,81,81,81,82,82,82,81,82,81,82,82,79,81,81,81,80,80,81,79,80,80,79,80,80,80,80,80,80,80,80,81,81,80,81,81,80,81,80,80,80,80,80,80,79,80,80,80,80,79,79,79,79,79,80,79,80,79,80,82,81,81,82,81,82,83,83,84,83,83,83,83,84,84,83,84,84,83,85,83,83,81,80,80,80,81,81,82,83,85,86,87,88,88,88,88,88,88,89,89,89,90,90,89,90,88,86,85,85,85,85,87,88,93,91,94,93,90,89,88,86,85,84,86,83,83,82,82,80,80,80,79,79,80,78,79,79,80,77,79,78,79,79,80,80,78,80,79,79,79,79,77,77,79,78,77,78,77,77,78,77,77,79,77,78,78,77,76,70,68,69,70,240,240,240,240,240,240,240,240,240,240,240,240,240,240,240,240,240,240,240,240,240,240,240,240,240,240,240,240,240,240,240,240,240,240,240,240,240,240,240,240,240,240,240,240,240,240,240,240,240,240,240,240,240,240,240,240,71,73,73,73,73,74,73,73,73,73,74,73,72,72,69,74,240,75,88,79,80,83,81,81,80,80,79,80,80,81,80,81,80,81,81,80,78,80,79,80,80,80,81,81,80,79,81,81,80,81,80,80,81,81,80,81,81,80,80,81,81,80,80,80,80,81,81,80,81,82,81,81,81,81,81,81,81,81,81,81,81,81,81,80,81,81,81,81,81,81,81,82,81,82,82,82,81,82,82,82,81,82,81,81,82,82,81,82,82,81,82,82,82,81,81,82,81,82,82,82,82,83,240,240,240,240,240,240,240
240,240,240,240,240,240,240,240,240,240,240,240,240,240,240,240,240,240,240,240,240,240,81,81,82,81,82,82,81,81,81,82,82,82,81,82,81,82,82,79,80,80,80,80,80,80,78,79,80,79,80,80,80,79,79,80,80,80,80,81,80,81,81,80,81,80,80,80,81,80,80,80,80,80,79,80,79,79,79,79,79,80,80,79,80,81,82,81,81,83,82,83,84,85,85,85,85,85,85,86,86,86,87,87,86,88,86,85,83,81,82,81,82,82,84,85,87,89,90,91,90,90,90,90,90,91,91,91,91,91,91,91,89,88,85,85,85,86,88,89,95,93,95,94,92,90,89,86,86,85,86,83,84,82,82,80,80,80,79,79,80,78,79,80,80,77,79,79,80,79,80,80,78,79,79,78,79,79,77,77,79,78,77,77,77,77,77,77,77,79,77,78,77,77,75,69,67,68,69,240,240,240,240,240,240,240,240,240,240,240,240,240,240,240,240,240,240,240,240,240,240,240,240,240,240,240,240,240,240,240,240,240,240,240,240,240,240,240,240,240,240,240,240,240,240,240,240,240,240,240,240,240,240,240,75,71,73,72,73,73,73,72,73,73,73,73,73,72,72,70,74,70,74,85,78,79,82,81,80,79,79,79,79,80,80,79,81,80,80,80,80,78,79,79,79,80,79,80,81,80,79,81,81,80,81,80,80,81,81,80,81,81,80,80,81,81,80,80,80,80,81,81,80,81,82,81,81,81,81,81,81,81,81,81,81,81,81,81,80,81,81,81,81,81,81,81,82,81,82,82,82,81,82,82,82,81,82,81,81,82,82,81,82,82,81,82,82,82,81,81,82,81,82,82,82,82,83,240,240,240,240,240,240,240
240,240,240,240,240,240,240,240,240,240,240,240,240,240,240,240,240,240,240,240,240,240,81,81,82,81,82,82,82,81,81,82,82,82,81,81,81,82,82,79,80,80,79,79,79,80,78,79,80,79,80,79,79,79,79,80,80,81,80,81,80,81,81,80,81,80,80,81,81,80,80,80,79,80,79,80,79,79,79,79,79,79,80,79,80,81,83,82,83,84,84,85,86,86,87,87,87,87,88,89,89,89,90,90,89,90,89,87,87,84,85,83,84,85,86,88,89,92,92,93,92,92,92,92,92,92,92,92,92,93,92,92,90,89,87,87,86,86,88,89,95,93,96,95,92,91,90,87,86,86,87,84,84,83,83,81,80,80,79,80,80,78,79,80,80,77,79,79,80,79,80,80,78,79,78,78,79,79,76,76,78,78,77,77,77,77,77,77,77,79,77,78,77,77,76,70,69,70,71,74,240,240,240,81,240,240,240,240,240,240,240,240,240,240,240,240,240,240,240,240,240,240,240,240,240,240,240,240,240,240,240,240,240,240,240,240,240,240,240,240,240,240,240,240,240,240,240,240,240,240,240,240,240,240,75,72,73,73,73,73,74,73,73,73,73,74,73,73,72,70,74,69,74,86,78,78,82,81,80,79,79,79,79,80,80,79,81,79,80,80,80,78,79,78,79,79,79,80,81,79,79,81,81,80,81,80,80,81,81,80,81,81,80,80,81,81,80,80,80,80,81,81,80,81,81,81,81,81,81,81,81,81,81,81,81,80,81,81,80,81,81,81,81,82,81,81,82,81,82,82,82,82,82,82,82,81,82,81,81,82,82,81,82,81,82,81,82,82,81,81,82,82,82,82,82,82,83,240,240,240,240,240,240,240
240,240,240,240,240,240,240,240,240,240,240,240,240,240,240,240,240,240,240,240,240,240,81,81,82,81,82,82,82,82,82,83,82,82,81,82,81,82,83,79,80,80,79,79,79,79,78,79,80,79,80,79,79,79,79,80,79,81,80,81,80,81,81,80,81,79,80,80,81,80,80,80,79,80,78,80,78,79,79,79,79,79,79,78,80,81,83,83,84,86,85,87,88,88,89,89,90,90,91,92,92,92,92,93,91,93,91,90,90,87,88,87,87,88,88,91,92,94,94,94,94,94,94,93,93,93,93,93,93,94,92,93,91,90,89,88,87,87,88,88,95,93,96,95,92,91,90,87,87,86,87,84,85,83,83,81,80,81,79,80,80,79,80,80,80,78,80,79,80,79,79,79,77,78,77,77,78,78,76,76,77,77,77,77,77,77,78,77,77,79,78,78,77,78,77,75,76,75,76,77,78,76,79,78,76,75,74,75,76,76,76,76,77,240,240,240,240,240,240,240,240,240,240,240,240,240,240,240,240,240,81,78,78,77,78,240,78,240,240,74,75,240,240,240,75,240,76,76,240,74,74,240,75,76,77,75,75,75,74,75,75,74,74,75,74,75,74,74,73,71,72,69,74,84,77,77,82,80,79,79,79,79,79,79,80,79,80,79,80,80,80,78,79,79,79,80,79,80,81,79,79,81,81,80,80,80,80,80,81,80,81,81,80,80,81,81,80,80,80,80,81,81,80,81,81,81,81,82,81,81,81,81,81,80,81,80,81,81,80,81,81,81,81,82,81,81,82,82,82,82,82,82,82,82,82,81,82,81,81,82,82,81,82,81,82,82,82,82,82,81,82,81,82,82,82,82,83,240,240,240,240,240,240,240
240,240,240,240,240,240,240,240,240,240,240,240,240,240,240,240,240,240,240,240,240,240,81,81,82,82,82,82,82,82,82,83,82,82,81,82,81,83,83,79,79,80,79,79,79,79,78,78,79,79,80,79,79,79,79,80,79,80,80,81,81,81,80,79,80,79,79,80,80,80,79,79,78,78,77,78,78,78,78,79,78,78,78,78,79,81,83,83,84,87,87,88,89,90,91,91,92,92,93,94,94,95,95,96,93,95,93,91,93,89,90,89,89,90,90,93,93,95,95,95,94,94,94,94,94,94,94,94,94,94,93,93,92,91,90,90,90,89,92,91,98,94,97,96,93,92,91,88,87,87,87,85,85,84,83,81,80,81,80,80,80,79,80,80,80,78,80,79,80,78,79,79,77,78,77,77,77,77,76,76,78,77,77,77,78,78,79,78,79,80,79,79,79,79,79,77,79,77,79,78,80,78,80,78,77,77,77,78,78,77,78,77,78,77,77,76,77,76,78,77,79,78,78,79,81,80,80,80,80,79,80,79,79,78,80,77,77,76,76,75,75,75,75,76,75,76,77,77,76,76,76,77,77,79,78,78,77,77,76,77,76,76,76,76,76,76,75,75,74,73,74,72,77,81,77,77,81,79,79,78,78,78,78,79,79,78,80,78,80,79,80,78,79,79,79,80,79,80,81,79,79,81,81,80,80,80,80,80,81,80,81,80,80,80,81,81,79,80,80,80,81,81,80,81,81,81,81,82,81,81,81,81,80,80,81,80,81,81,80,81,81,81,81,82,81,81,82,82,83,82,82,82,82,82,82,81,82,81,81,82,82,81,82,81,82,82,82,82,82,82,82,81,82,82,82,82,83,240,240,240,240,240,240,240
240,240,240,240,240,240,240,240,240,240,240,240,240,240,240,240,240,240,240,240,240,240,81,81,82,82,82,82,82,82,82,83,82,82,81,82,81,83,83,79,79,80,79,79,79,79,78,79,79,79,80,79,79,79,79,79,78,80,80,81,81,81,80,79,80,78,79,80,80,80,79,79,78,78,77,77,77,78,78,78,78,78,78,77,78,80,83,84,85,87,88,89,90,91,93,92,93,94,95,96,96,96,96,97,95,95,95,93,94,91,92,91,91,92,91,93,94,96,95,96,94,95,95,94,94,95,94,95,94,95,94,94,93,92,92,93,92,91,94,93,98,95,97,96,94,93,92,88,88,87,88,85,85,84,84,81,80,81,80,80,80,79,80,80,80,78,80,78,79,78,78,78,76,77,77,76,77,77,75,76,77,77,78,77,78,79,79,79,79,80,79,79,79,79,79,78,79,78,79,78,81,78,80,78,77,78,78,79,79,78,78,78,78,78,78,77,78,77,79,78,80,78,78,78,80,79,80,80,80,79,80,79,79,78,80,76,76,77,77,76,76,76,76,77,76,77,78,78,77,77,78,79,78,80,79,79,78,78,77,78,77,77,77,77,76,77,76,76,74,74,74,73,77,77,77,77,79,78,78,77,77,77,77,78,78,78,79,78,79,79,80,78,79,79,79,80,79,80,81,79,79,81,81,80,80,80,80,80,81,80,81,80,80,80,81,81,79,80,80,80,81,81,80,81,81,81,81,82,81,81,81,81,80,80,81,80,81,81,80,81,81,81,81,82,81,81,82,82,82,82,82,82,82,82,82,81,82,81,81,82,82,81,82,82,82,82,82,82,82,82,82,82,83,82,82,82,83,240,240,240,240,240,240,240
240,240,240,240,240,240,240,240,240,240,240,240,240,240,240,240,240,240,240,240,240,240,81,81,82,82,82,81,82,82,81,83,82,82,81,82,81,83,83,80,79,80,79,79,79,78,77,79,79,79,80,79,79,79,78,79,78,80,79,81,80,80,80,79,79,79,79,80,79,80,79,79,78,78,77,77,77,78,78,78,78,78,77,77,78,80,83,84,86,88,89,91,92,93,95,94,96,96,96,97,97,97,97,98,96,96,96,94,96,92,93,92,92,93,92,94,95,96,96,96,95,95,95,94,95,95,95,95,95,95,94,95,94,94,93,94,94,93,96,94,99,96,98,96,94,93,92,89,88,87,88,85,85,84,84,81,80,81,80,80,80,79,80,80,80,78,79,78,79,78,78,78,76,76,76,76,77,76,76,76,77,77,77,77,78,78,79,78,79,79,79,78,79,78,79,78,79,78,79,78,81,78,80,78,77,78,78,79,79,77,78,78,78,78,78,77,78,77,79,78,79,78,78,78,79,79,79,79,79,79,79,78,78,77,79,75,76,75,76,76,76,76,76,76,75,77,77,77,76,77,78,79,78,79,79,79,78,78,78,78,77,77,77,78,77,77,77,77,75,76,75,75,77,79,77,77,79,78,78,78,77,77,78,78,78,78,79,78,79,79,80,78,79,79,79,80,79,80,81,79,79,81,81,80,80,80,80,81,81,80,81,80,80,80,81,81,79,80,80,80,81,81,80,80,82,81,81,82,81,81,81,81,80,80,81,80,81,81,80,80,80,81,81,82,81,81,82,82,82,82,82,82,82,82,82,81,82,81,81,82,82,81,82,82,82,82,82,82,82,82,82,82,83,82,82,82,83,240,240,240,240,240,240,240
240,240,240,240,240,240,240,240,240,240,240,240,240,240,240,240,240,240,240,240,240,240,81,81,82,82,82,81,82,82,81,82,82,82,81,82,81,83,83,79,78,80,79,79,78,78,77,78,78,79,79,79,78,78,78,78,77,79,79,80,80,80,79,79,79,78,78,79,79,79,79,78,77,77,77,77,77,77,77,78,77,77,77,77,77,79,83,85,86,89,91,92,93,94,97,96,97,98,98,99,98,98,98,99,96,97,96,95,97,94,94,94,94,95,93,95,96,97,96,96,96,96,96,95,95,96,95,95,96,96,95,96,94,95,94,96,95,95,97,96,99,97,98,97,95,94,93,90,89,88,88,85,86,84,84,81,80,81,80,80,80,79,80,80,80,78,79,78,79,78,77,78,75,75,75,76,76,76,75,75,76,76,77,76,77,77,78,77,79,78,78,78,78,78,79,78,78,78,79,78,80,78,80,78,77,78,78,79,78,77,78,77,77,77,77,76,77,76,77,77,79,77,77,77,78,77,78,78,78,78,78,77,77,76,77,74,74,74,74,75,75,75,75,75,75,77,77,77,76,77,78,79,78,79,78,79,78,78,78,78,77,77,77,78,77,77,77,77,76,77,76,76,77,80,78,78,80,78,78,78,78,78,78,79,79,79,80,79,79,79,80,79,79,79,80,80,80,79,81,79,79,81,81,80,80,80,80,81,81,80,80,80,80,79,81,81,79,80,80,80,81,81,80,80,82,81,81,82,81,81,81,81,80,80,81,80,81,81,80,81,80,81,81,82,82,82,82,82,83,82,82,82,82,82,82,82,82,81,81,82,82,81,82,82,82,82,82,82,82,82,83,82,83,82,82,82,83,240,240,240,240,240,240,240
240,240,240,240,240,240,240,240,240,240,240,240,240,240,240,240,240,240,240,240,240,240,81,81,82,82,82,81,82,82,81,82,82,82,81,81,80,82,83,79,78,80,79,79,78,78,77,78,78,79,79,79,78,78,77,78,77,78,78,79,79,79,79,78,78,78,77,79,78,79,79,78,77,77,77,76,77,77,77,78,77,76,76,76,76,78,82,85,86,90,91,93,94,95,98,97,98,99,99,99,99,98,98,99,97,97,97,96,98,95,95,95,96,96,94,96,96,97,97,97,96,96,96,96,96,96,96,96,96,97,96,96,95,96,95,96,97,96,98,97,99,98,99,97,96,95,94,91,90,89,89,86,86,84,84,81,80,82,80,80,80,79,80,80,80,77,79,77,79,77,77,77,75,75,75,75,76,75,75,75,76,75,76,76,76,77,78,77,78,78,77,78,78,78,79,78,79,78,80,79,80,78,80,77,77,77,77,78,77,76,77,77,76,76,76,75,76,75,76,77,78,77,76,77,77,76,77,77,77,78,77,77,77,76,77,74,74,74,74,75,75,75,75,75,76,77,77,77,77,77,78,79,78,79,78,79,78,78,78,78,77,78,78,78,78,77,77,77,76,77,76,77,77,80,78,78,80,79,79,78,78,78,79,79,79,79,80,79,80,79,80,79,79,79,79,79,79,79,81,79,79,81,81,79,80,80,80,80,81,80,80,80,80,79,81,81,79,80,80,80,81,81,80,80,81,81,81,81,81,80,81,81,80,80,81,80,81,81,80,80,80,81,81,82,82,82,82,82,83,82,82,82,83,82,82,82,82,81,81,82,82,81,82,82,82,82,82,82,82,82,83,82,83,82,82,82,83,240,240,240,240,240,240,240
240,240,240,240,240,240,240,240,240,240,240,240,240,240,240,240,240,240,240,240,240,240,81,81,82,82,82,81,82,82,81,82,82,82,81,81,80,82,83,80,78,80,79,79,78,78,77,78,78,79,79,79,78,78,77,78,76,78,78,78,79,79,78,78,78,78,78,78,78,79,78,78,77,77,77,76,77,77,77,78,77,76,76,76,76,77,82,84,86,90,91,93,94,96,99,98,99,100,99,100,99,99,99,99,98,98,98,97,99,97,96,96,98,97,95,97,97,98,97,97,97,97,97,96,96,96,96,96,96,97,96,97,95,96,96,97,97,97,98,98,100,99,99,98,97,96,95,93,91,90,90,87,87,85,84,81,81,82,80,80,80,79,80,80,80,77,80,77,79,77,77,77,75,75,75,75,76,75,74,75,76,75,76,75,76,76,77,76,78,78,77,77,78,79,79,79,80,79,81,80,81,78,81,78,78,78,77,79,77,76,77,76,76,75,76,75,76,75,76,77,77,77,76,76,77,76,76,77,77,78,77,77,77,77,76,75,75,74,75,75,76,76,76,76,76,77,77,77,77,77,78,79,78,79,78,79,78,79,78,78,77,78,78,78,78,77,77,77,77,78,77,77,77,81,78,78,80,79,79,79,79,78,79,79,79,79,80,79,80,80,81,79,79,79,80,79,79,79,81,79,78,81,81,79,80,80,80,80,81,80,80,80,81,79,81,81,79,80,80,80,81,81,80,80,81,81,81,81,81,80,81,81,80,80,81,80,81,81,80,81,81,81,81,82,82,82,82,82,83,82,82,82,82,82,82,82,82,81,81,82,82,81,82,82,82,82,82,82,82,82,83,82,83,82,82,83,83,240,240,240,240,240,240,240
240,240,240,240,240,240,240,240,240,240,240,240,240,240,240,240,240,240,240,240,240,240,81,81,82,82,82,81,82,82,81,82,82,82,81,81,81,82,83,80,78,80,79,79,79,78,78,79,78,79,79,79,78,78,77,78,76,78,78,78,80,79,79,78,78,78,78,78,240,240,240,240,240,240,240,240,240,240,77,78,77,76,76,76,76,77,81,84,86,89,91,92,94,96,99,98,99,100,100,100,100,99,100,100,99,99,99,99,100,98,98,98,99,98,96,98,98,98,97,98,97,97,97,96,97,97,96,96,96,97,96,97,95,97,96,97,97,97,98,98,100,99,99,98,97,96,95,93,92,91,91,88,88,86,85,82,82,83,81,81,81,80,81,80,80,78,80,77,79,78,77,77,75,75,75,76,76,75,75,75,76,75,76,75,75,76,77,76,78,78,77,77,78,79,79,79,80,80,81,80,82,79,82,78,79,78,78,79,78,77,77,77,76,76,76,76,76,75,76,77,77,77,76,76,77,76,76,77,77,78,77,77,78,77,76,76,75,74,75,76,76,76,76,76,76,77,77,77,77,77,78,79,78,79,78,79,78,79,78,78,77,78,78,78,78,77,77,78,77,78,77,78,77,81,78,78,80,79,79,79,79,79,79,79,79,80,80,79,80,80,81,79,79,79,80,80,80,79,81,79,79,81,81,79,80,80,80,80,81,80,80,80,80,79,81,81,79,79,80,80,81,80,80,80,81,81,81,81,81,80,81,81,80,80,81,80,81,81,81,81,81,81,81,82,82,82,82,82,83,82,82,82,82,82,82,82,82,81,81,82,82,81,82,82,82,82,82,82,82,82,82,82,83,82,82,82,83,240,240,240,240,240,240,240
240,240,240,240,240,240,240,240,240,240,240,240,240,240,240,240,240,240,240,240,240,240,81,81,82,83,82,80,82,82,81,82,81,82,81,81,81,82,83,80,78,80,79,80,79,78,78,79,79,79,79,80,78,78,77,78,77,78,77,78,80,78,79,78,78,78,78,78,240,240,240,240,240,240,225,223,240,240,240,78,77,76,76,76,76,78,82,85,86,89,91,92,94,95,98,98,99,100,100,100,100,100,100,100,99,99,100,99,101,99,99,99,100,99,97,98,98,98,97,98,98,97,97,96,97,97,96,96,96,97,96,96,95,97,96,97,98,97,99,98,99,99,99,98,97,96,95,94,92,92,92,89,89,87,87,84,83,84,82,82,82,80,81,81,80,78,80,78,79,78,77,77,75,74,75,76,76,75,75,75,76,75,76,75,75,76,77,76,78,77,77,77,78,79,79,79,80,80,82,81,82,80,82,79,80,79,79,80,78,77,78,77,76,76,76,76,76,75,76,77,77,77,76,76,77,76,76,77,77,78,77,77,78,77,76,76,76,75,76,76,77,77,77,76,77,78,77,78,77,77,78,78,78,78,78,79,78,78,78,78,77,78,78,78,78,77,77,78,77,78,76,77,76,81,78,78,80,79,79,79,79,79,79,79,79,80,80,79,80,80,81,80,80,79,80,80,80,79,81,79,78,81,81,79,80,79,80,80,80,80,80,80,80,79,81,81,79,79,80,80,81,80,80,80,81,81,80,81,80,80,81,81,80,80,81,80,81,81,81,81,81,81,81,82,82,82,82,82,82,82,82,82,82,82,82,82,82,81,82,82,82,81,82,82,82,82,82,82,82,82,82,82,83,82,82,83,83,240,240,240,240,240,240,240
240,240,240,240,240,240,240,240,240,240,240,240,240,240,240,240,240,240,240,240,240,240,81,81,82,83,82,80,82,82,81,82,81,82,81,81,81,82,82,80,78,80,79,79,78,78,78,79,79,79,79,80,78,78,78,78,77,79,78,78,80,78,79,78,78,78,240,240,240,240,240,226,224,225,225,223,240,240,240,79,77,77,76,76,77,78,82,84,85,88,89,90,92,93,96,96,98,98,99,99,99,99,99,99,98,99,99,99,100,98,100,99,100,99,97,98,98,98,98,98,98,97,97,97,97,97,96,96,96,97,96,96,96,98,96,97,98,97,99,98,99,99,99,98,97,97,96,94,93,93,92,90,90,89,88,85,84,85,83,83,82,81,82,82,81,78,80,77,78,78,77,76,75,74,75,75,75,75,75,75,76,75,76,75,75,76,77,76,78,77,77,77,78,78,79,78,80,80,82,81,82,80,82,79,81,79,79,81,79,78,78,77,77,76,77,76,77,76,77,77,77,77,76,76,77,76,76,77,77,77,77,77,77,77,76,77,76,76,77,76,77,77,77,76,77,77,77,77,77,77,77,78,78,78,77,79,77,78,78,77,77,77,77,78,78,77,77,77,77,78,76,77,76,81,78,78,80,79,79,79,79,79,80,79,79,80,80,79,80,80,81,80,80,80,80,80,80,79,81,79,78,81,82,79,80,79,80,80,80,80,80,80,80,79,81,80,78,79,80,79,82,80,80,80,81,81,80,81,81,80,81,80,80,80,80,80,81,81,81,81,81,81,81,82,82,81,82,82,82,82,82,82,82,82,82,82,82,81,82,81,82,81,82,82,82,82,82,82,83,82,82,82,83,82,83,83,83,240,240,240,240,240,240,240
240,240,240,240,240,240,240,240,240,240,240,240,240,240,240,240,240,240,240,240,240,240,81,81,81,83,82,80,82,82,81,82,81,82,81,81,80,82,82,81,78,80,80,80,79,78,78,79,79,79,79,80,78,78,78,78,78,79,78,78,80,78,79,78,78,78,240,240,240,240,240,225,224,224,224,223,240,240,240,240,240,240,240,76,76,77,81,82,84,86,88,89,90,91,93,93,95,96,97,98,97,97,98,99,98,98,98,98,100,98,100,99,100,99,97,98,98,98,98,98,98,97,97,97,97,97,96,96,96,97,96,97,96,98,96,97,98,98,99,98,99,99,99,98,97,97,96,95,94,94,93,92,91,90,89,88,86,86,84,84,83,82,83,82,81,78,80,77,78,77,76,76,74,74,74,75,75,75,75,75,76,75,76,75,75,76,77,76,78,77,77,77,78,78,79,78,80,80,82,82,82,80,82,79,81,80,80,81,79,78,78,77,77,76,77,77,77,76,77,77,77,77,76,76,77,76,76,76,77,77,77,76,77,76,76,77,76,76,77,76,77,77,77,77,77,77,77,77,77,77,77,78,77,77,77,78,77,78,78,77,77,77,77,77,77,76,76,77,77,78,76,76,75,80,78,79,80,79,79,79,80,79,80,80,80,81,80,80,80,80,82,80,80,80,80,80,80,79,81,79,78,82,82,79,80,79,80,80,80,80,80,80,80,79,81,80,78,78,79,79,82,80,80,80,81,81,80,81,80,80,81,81,80,80,80,80,81,81,81,81,81,81,81,82,82,82,82,82,82,82,82,82,82,82,82,82,82,81,82,81,82,81,82,81,82,82,82,82,83,82,82,82,83,82,83,83,83,240,240,240,240,240,240,240
240,240,240,240,240,240,240,240,240,240,240,240,240,240,240,240,240,240,240,240,240,240,81,81,81,83,82,80,82,82,81,82,81,82,81,80,80,82,82,81,78,80,80,80,79,78,78,79,79,79,79,80,78,78,78,78,78,79,79,79,80,79,79,78,78,79,78,79,79,80,240,240,240,240,240,240,78,77,240,78,77,76,75,76,76,76,79,80,83,85,86,87,88,89,91,91,93,94,96,96,95,94,96,97,96,96,96,96,99,97,100,99,100,98,97,98,98,98,98,98,98,97,97,97,97,96,96,96,96,97,96,97,96,98,96,97,98,98,99,98,99,99,99,98,97,97,96,95,94,95,94,92,91,91,90,89,88,87,85,85,84,83,84,83,82,79,81,77,77,77,76,76,74,74,74,75,75,75,75,75,76,75,76,75,76,76,77,76,78,77,77,77,78,78,79,78,80,80,82,82,82,81,83,80,81,80,80,82,79,78,78,78,77,77,77,77,77,76,77,77,77,77,76,76,77,76,77,77,77,77,76,76,77,76,76,77,76,76,77,76,76,77,77,77,77,77,77,77,77,77,77,78,77,77,77,78,77,78,77,77,76,77,77,77,77,76,76,77,76,77,75,76,75,80,78,79,80,79,79,79,80,80,80,80,80,81,80,80,80,80,82,80,80,80,80,80,80,79,81,80,78,82,82,79,80,79,80,80,80,80,80,80,80,78,80,80,78,77,79,78,81,79,80,80,81,81,80,81,80,80,80,81,80,81,81,80,81,81,81,81,81,82,81,82,82,82,82,82,82,82,82,82,82,82,82,82,82,81,82,81,82,81,82,81,82,82,82,82,82,82,82,82,83,82,83,83,83,240,240,240,240,240,240,240
240,240,240,240,240,240,240,240,240,240,240,240,240,240,240,240,240,240,240,240,240,240,81,80,81,83,82,80,82,82,81,82,81,81,81,80,80,82,82,81,78,80,80,80,79,79,79,79,79,79,79,80,78,78,78,78,78,79,79,79,80,79,79,78,78,79,78,80,79,80,80,78,77,77,78,77,78,78,77,78,77,77,76,76,76,77,79,79,81,83,85,86,86,88,89,90,91,92,94,94,93,92,93,95,94,93,93,94,98,95,99,97,98,97,96,98,98,98,98,98,98,97,97,96,97,96,96,96,96,97,96,97,96,98,96,97,98,98,99,98,98,99,99,98,97,97,96,96,95,95,94,93,92,92,91,90,89,88,86,85,85,85,85,84,83,79,81,77,77,76,76,75,74,74,74,75,75,75,75,75,76,75,76,76,76,76,78,76,78,77,77,77,78,78,79,78,80,81,83,83,83,81,83,80,82,80,80,82,79,79,79,78,77,77,77,77,77,76,77,77,78,77,76,77,77,76,77,76,76,77,76,76,77,76,76,76,76,76,77,76,76,77,77,77,77,78,77,78,77,77,77,78,77,78,77,79,77,77,77,77,76,77,76,77,77,76,76,76,76,77,75,76,75,80,79,79,80,79,79,80,80,80,80,80,80,81,81,80,80,81,82,80,80,80,80,80,80,79,81,80,78,82,82,79,80,79,80,80,80,80,80,80,80,78,80,80,78,77,79,78,81,78,79,79,81,80,80,81,80,80,80,80,80,81,80,81,81,82,81,81,81,81,81,82,82,82,82,82,82,82,82,82,82,82,82,82,82,81,82,81,82,81,82,81,82,82,82,82,82,82,82,82,83,82,83,82,83,240,240,240,240,240,240,240
240,240,240,240,240,240,240,240,240,240,240,240,240,240,240,240,240,240,240,240,240,240,80,80,81,83,82,79,82,82,80,81,81,81,81,80,79,82,81,80,78,79,79,79,79,78,78,79,79,79,79,80,78,78,78,78,79,79,79,79,80,79,79,78,79,80,79,80,79,80,80,78,78,77,78,77,78,78,78,78,77,77,76,76,76,77,78,79,80,82,83,84,85,87,87,88,89,90,91,90,90,88,90,91,90,89,89,90,94,92,96,95,97,96,96,97,98,98,98,98,98,97,97,96,97,96,96,96,96,97,96,97,97,98,96,97,98,98,99,98,98,99,99,98,97,97,96,96,95,96,94,94,93,92,92,91,90,89,87,87,86,86,86,85,83,80,81,77,77,76,76,75,75,74,75,75,76,76,76,75,77,76,77,76,76,76,78,77,78,78,78,78,78,79,80,79,81,82,84,84,83,82,83,80,82,81,80,82,79,79,79,78,77,77,77,77,77,76,77,77,78,77,76,77,77,76,77,76,76,77,76,76,77,76,76,76,76,76,76,76,76,77,78,77,77,78,78,78,77,77,78,78,78,78,77,79,77,77,78,77,76,77,76,77,77,76,76,76,76,77,76,77,76,80,79,79,80,79,80,80,80,80,81,80,80,81,81,80,81,81,82,80,80,80,80,80,80,79,82,80,78,82,82,79,80,79,80,80,80,80,80,80,80,78,80,80,77,76,78,77,81,78,79,79,81,81,80,81,80,80,80,80,80,81,80,80,81,82,81,81,81,81,81,82,82,82,82,82,82,82,82,82,82,82,82,82,82,81,82,81,82,81,82,81,82,82,82,82,82,82,82,82,83,82,83,82,83,240,240,240,240,240,240,240
240,240,240,240,240,240,240,240,240,240,240,240,240,240,240,240,240,240,240,240,240,240,80,80,80,83,82,79,82,82,80,81,80,81,80,80,79,81,81,80,78,79,79,79,79,78,78,79,79,79,79,80,78,78,78,78,79,79,79,79,80,79,79,78,78,79,78,79,79,80,80,78,78,77,78,77,79,79,78,79,77,77,76,76,77,77,79,78,80,81,82,83,83,85,85,86,87,87,88,87,86,84,87,87,86,85,84,86,240,90,94,93,95,95,95,97,97,98,98,98,98,97,97,96,97,96,96,96,96,97,97,97,97,98,96,98,98,99,99,98,98,99,99,98,97,97,96,97,96,97,95,95,93,93,93,92,91,90,88,88,87,87,87,86,84,81,82,78,76,76,76,75,75,74,75,75,76,76,76,76,77,76,77,76,76,77,78,77,79,78,78,78,79,79,81,80,82,82,84,84,84,82,83,80,82,80,80,82,79,79,79,77,77,77,77,77,77,76,77,77,78,77,76,77,77,76,77,76,76,77,76,76,77,76,76,76,76,76,76,76,76,77,78,77,77,78,78,78,77,78,78,78,78,78,78,79,78,77,78,77,76,77,76,77,77,76,76,77,76,77,76,77,76,80,79,79,80,79,80,80,80,80,81,80,80,82,81,80,81,81,82,81,80,80,80,80,80,79,82,80,79,82,82,79,81,79,80,80,80,80,80,80,80,78,80,80,77,76,78,77,81,78,79,80,81,81,80,81,80,80,80,81,80,81,80,81,81,82,81,81,81,82,81,82,82,82,82,82,82,82,82,82,82,82,82,82,82,82,82,81,82,81,82,82,82,82,82,81,82,82,82,82,83,82,83,82,83,240,240,240,240,240,240,240
240,240,240,240,240,240,240,240,240,240,240,240,240,240,240,240,240,240,240,240,240,240,80,80,80,83,81,79,81,81,80,81,80,81,80,80,79,81,81,80,78,79,79,79,79,78,78,79,79,79,79,80,79,79,78,78,79,79,79,79,80,79,79,78,78,80,79,79,79,80,80,79,78,78,78,78,79,79,78,79,78,78,77,77,77,78,79,79,80,81,82,82,82,84,84,84,85,85,86,84,84,81,84,84,83,82,82,83,240,240,240,91,93,93,94,95,96,97,98,98,97,97,96,96,97,96,96,96,97,97,97,98,98,98,96,98,99,99,99,98,98,100,99,98,98,98,97,97,96,97,95,96,94,94,94,93,91,91,89,89,89,89,89,87,85,82,82,78,76,76,76,75,75,74,75,75,76,76,76,76,77,76,77,76,77,77,78,77,79,79,79,79,79,80,82,80,83,83,85,85,84,83,84,81,82,80,80,81,79,79,78,77,77,77,77,77,77,76,77,77,78,77,76,77,77,76,77,76,76,77,77,76,77,77,76,76,76,76,76,76,77,77,78,77,77,78,78,78,77,77,78,78,78,78,77,79,78,77,78,77,76,77,76,77,77,76,76,77,77,78,76,77,76,80,79,79,80,80,80,80,81,81,82,81,80,82,81,81,81,81,82,81,80,80,80,80,80,79,82,80,79,82,82,79,81,79,80,80,80,80,80,80,80,78,80,80,78,76,78,78,80,78,79,79,81,81,80,81,80,80,80,81,80,81,80,81,81,82,81,81,81,82,81,82,82,82,83,82,82,82,82,82,82,82,82,82,82,82,82,81,82,81,82,82,82,81,82,81,82,82,82,82,82,82,83,83,83,240,240,240,240,240,240,240
240,240,240,240,240,240,240,240,240,240,240,240,240,240,240,240,240,240,240,240,240,240,80,80,80,83,81,79,81,81,80,81,80,80,80,79,79,80,81,80,78,79,79,79,79,78,78,79,79,79,79,80,79,78,78,78,79,79,79,79,79,79,79,78,79,80,79,79,79,80,80,79,78,78,79,79,80,80,79,80,79,78,77,78,78,78,80,79,80,81,81,82,81,83,84,83,84,84,85,82,83,79,82,83,82,81,81,83,240,240,240,240,93,93,94,95,96,97,98,98,98,97,96,96,97,96,96,96,97,97,97,98,97,98,96,98,98,99,99,98,98,100,99,98,98,97,97,97,96,98,96,96,95,94,94,93,92,92,90,90,89,89,89,88,86,84,83,79,76,76,76,75,75,74,75,75,76,76,76,75,77,76,76,76,77,77,78,77,79,79,79,79,80,80,83,82,84,85,86,86,84,83,84,81,82,80,80,81,79,78,78,77,77,77,77,77,77,76,77,77,78,77,76,77,77,76,76,76,76,77,77,76,77,76,76,76,76,77,76,76,76,77,78,77,77,78,78,78,77,77,77,78,77,78,77,78,78,77,78,77,76,77,76,77,77,76,76,77,77,78,77,77,76,80,79,79,80,80,80,81,81,81,82,81,81,82,81,81,81,82,82,81,81,80,80,80,80,79,82,80,79,82,82,79,81,79,80,80,80,80,80,80,80,78,80,80,78,76,79,78,80,78,79,80,80,80,80,81,80,80,80,81,81,81,80,81,81,82,82,82,81,82,82,82,83,82,83,82,82,82,82,82,82,81,82,82,82,82,82,81,82,81,82,82,82,81,82,81,82,82,82,82,82,82,83,82,83,240,240,240,240,240,240,240
240,240,240,240,240,240,240,240,240,240,240,240,240,240,240,240,240,240,240,240,240,240,81,80,80,83,81,79,81,81,80,80,80,80,80,79,79,80,81,80,78,79,79,79,79,79,79,79,80,79,79,80,79,78,78,78,79,79,79,79,79,79,79,79,79,80,79,79,80,80,81,79,78,78,79,79,81,80,80,80,79,79,78,78,78,79,81,80,81,81,82,82,82,84,84,83,85,84,85,82,83,79,82,82,82,82,82,240,240,240,240,240,93,93,94,96,96,97,98,98,98,97,96,96,97,96,96,96,97,97,97,98,97,98,96,98,98,99,99,98,98,100,99,98,98,97,97,97,97,98,96,97,95,95,95,94,93,92,91,91,90,90,90,89,87,86,84,80,76,76,77,76,75,75,75,75,76,76,76,76,77,76,76,76,76,76,78,77,80,79,79,79,80,81,84,83,85,86,86,86,85,83,83,80,82,80,79,81,78,78,78,77,77,76,77,77,77,76,77,77,77,77,76,76,76,76,76,76,76,76,76,76,77,76,75,76,76,77,76,76,76,77,77,77,77,77,77,77,77,77,77,78,77,78,77,78,77,77,78,77,76,77,76,77,77,77,76,77,77,78,77,77,76,80,79,80,81,80,80,81,82,82,83,82,81,83,82,82,81,82,83,81,81,80,80,81,80,79,82,80,79,82,82,79,81,79,80,80,80,80,80,80,80,78,80,80,78,76,79,78,80,78,79,80,80,81,80,81,80,80,80,81,81,81,80,82,81,82,82,81,81,82,82,82,83,82,83,82,83,82,82,82,82,82,82,82,82,82,82,81,82,81,82,81,82,81,83,81,82,82,82,82,82,82,83,82,83,240,240,240,240,240,240,240
240,240,240,240,240,240,240,240,240,240,240,240,240,240,240,240,240,240,240,240,240,240,81,80,80,83,81,79,81,81,80,80,80,80,80,79,79,80,81,80,78,79,79,79,79,79,79,79,80,79,79,80,79,78,78,78,79,80,79,79,79,79,79,79,79,80,79,79,80,80,81,79,78,78,79,80,81,81,80,81,80,79,78,78,79,80,81,80,81,81,82,82,81,83,84,83,84,84,84,81,82,79,82,82,82,82,83,240,240,240,240,240,93,93,94,96,96,97,98,98,98,97,96,96,97,95,96,96,97,97,97,98,97,98,95,97,98,99,99,98,98,100,99,98,98,97,97,97,97,98,96,97,96,96,96,95,93,93,92,91,91,91,91,89,87,87,85,81,76,76,77,76,76,75,75,75,76,76,76,76,77,76,76,77,77,77,79,78,81,81,81,81,82,83,85,84,87,87,87,87,85,84,84,81,82,80,79,80,78,78,78,77,77,76,76,77,77,76,77,77,77,77,76,76,76,76,76,76,76,76,76,76,77,76,75,76,76,77,76,76,76,77,77,77,77,77,77,77,77,77,77,77,77,77,77,78,77,77,78,77,76,77,76,77,77,77,76,77,77,78,77,76,76,80,78,79,81,80,80,81,82,82,83,81,81,83,81,82,81,82,82,81,81,80,80,81,80,79,82,80,79,82,82,79,81,79,80,80,80,80,80,80,80,78,80,80,78,76,78,78,80,78,79,80,80,80,79,80,80,80,80,80,81,81,80,81,81,82,81,82,82,82,82,83,83,83,83,83,83,82,82,82,83,82,82,82,82,82,82,81,82,81,82,81,82,81,83,81,82,81,82,82,82,82,83,82,82,240,240,240,240,240,240,240
240,240,240,240,240,240,240,240,240,240,240,240,240,240,240,240,240,240,240,240,240,240,81,80,80,83,81,79,81,81,80,80,80,80,80,79,79,80,81,80,78,79,79,80,79,79,79,79,80,79,80,80,79,79,78,78,79,80,79,79,79,79,79,79,79,79,79,79,79,80,81,79,78,79,80,80,82,81,80,81,80,80,79,79,80,80,82,81,81,81,82,82,82,84,84,83,84,84,84,82,83,79,82,83,83,83,84,240,240,240,240,240,94,94,94,96,96,97,99,98,98,97,96,96,97,95,96,96,96,97,96,98,97,98,95,97,98,99,99,98,98,100,99,98,98,97,97,97,97,98,96,97,96,96,96,96,94,94,93,92,91,91,91,90,88,88,85,82,76,76,78,76,76,75,75,75,76,76,76,76,77,76,77,77,77,77,80,79,82,82,82,83,83,84,86,86,88,88,88,88,86,85,84,82,82,80,79,81,79,79,78,77,77,76,76,77,77,76,77,77,77,77,76,76,76,76,76,76,76,76,76,76,77,76,75,76,77,77,77,76,76,77,78,77,77,77,77,77,77,77,77,77,77,77,77,77,77,77,78,77,76,77,76,77,77,77,76,77,77,78,77,76,76,79,78,79,80,80,80,80,81,81,82,81,81,83,81,81,81,82,82,81,81,80,80,81,80,79,82,80,79,82,82,80,81,79,80,80,80,80,80,80,80,78,80,80,78,76,78,78,80,79,79,80,80,80,79,80,80,80,80,80,81,81,80,81,81,82,81,82,81,82,82,83,83,83,83,82,83,82,82,82,83,81,82,82,82,81,82,81,82,81,82,81,82,81,83,81,82,81,82,82,82,82,83,81,82,240,240,240,240,240,240,240
240,240,240,240,240,240,240,240,240,240,240,240,240,240,240,240,240,240,240,240,240,240,81,81,80,83,81,79,81,81,80,80,80,80,80,80,79,80,81,80,78,79,79,80,79,79,79,79,80,79,80,80,79,79,78,78,79,80,79,79,79,79,79,79,79,79,79,79,79,80,81,80,79,79,81,82,83,83,82,83,82,82,81,81,82,83,84,83,83,83,84,84,84,85,85,84,86,86,86,84,84,81,84,84,84,84,85,240,240,240,240,93,94,94,94,96,96,97,99,98,98,97,96,96,97,95,96,96,96,97,96,98,97,98,95,97,98,99,99,98,98,100,99,98,98,97,97,97,97,99,96,98,96,96,97,96,94,94,93,93,92,92,92,90,89,89,85,83,76,76,78,76,76,75,74,75,75,76,76,76,77,76,77,78,78,78,81,80,84,84,84,85,85,86,87,87,89,88,88,89,87,86,85,83,83,81,80,82,79,80,79,77,77,77,77,78,78,77,77,77,77,77,76,76,76,76,76,76,76,76,76,76,77,76,76,76,77,77,77,76,76,77,78,77,77,77,77,78,77,77,77,77,77,77,77,77,77,76,77,77,76,76,76,76,77,76,76,77,77,77,77,76,76,79,78,79,80,79,79,80,81,81,82,81,80,83,81,81,81,81,82,81,81,80,81,81,81,80,82,80,79,82,82,80,81,79,80,80,80,80,80,80,81,78,81,81,78,76,79,79,81,79,79,80,80,80,80,80,80,80,80,80,81,81,80,80,81,82,81,81,81,82,82,82,83,82,83,82,82,82,82,82,83,81,82,82,82,81,82,81,82,81,82,81,82,81,83,81,82,81,82,81,82,81,82,81,82,240,240,240,240,240,240,240
240,240,240,240,240,240,240,240,240,240,240,240,240,240,240,240,240,240,240,240,240,240,81,81,80,82,81,79,81,81,80,80,80,80,80,79,79,80,80,80,78,79,79,79,79,79,79,79,80,79,80,80,79,79,78,79,80,80,79,79,79,79,80,79,79,79,79,79,79,80,81,80,80,80,83,84,85,85,85,86,85,85,83,84,84,85,86,85,85,85,86,86,86,86,87,86,88,88,88,87,86,83,86,87,240,240,240,240,240,240,240,93,94,94,94,96,96,97,99,98,98,97,96,96,97,95,95,96,96,96,96,98,97,98,95,98,98,99,99,98,98,100,99,99,98,97,97,97,97,99,96,98,96,97,97,96,94,94,93,93,92,92,92,91,89,89,85,83,76,76,77,76,75,74,74,74,75,76,76,76,77,77,77,79,79,79,83,82,85,86,86,86,86,87,89,88,90,90,90,91,88,87,86,83,84,82,81,82,80,80,80,78,77,77,77,78,78,77,77,77,78,78,76,77,77,77,77,77,77,77,76,76,78,77,76,76,77,78,77,76,77,77,78,77,77,78,78,78,78,77,77,77,77,77,77,77,77,76,77,76,76,76,75,76,76,76,75,76,76,77,77,75,76,78,78,78,79,79,79,79,80,80,82,80,80,82,81,81,81,81,82,81,81,80,81,81,81,80,82,80,79,82,82,80,81,79,80,80,81,80,80,80,80,78,80,80,78,77,79,79,81,79,79,80,80,80,80,80,80,80,80,80,81,81,80,80,81,81,81,81,81,81,81,82,83,82,83,82,82,82,82,82,83,81,82,82,82,81,82,81,82,81,82,81,81,81,83,81,81,81,82,81,82,81,82,81,81,240,240,240,240,240,240,240
240,240,240,240,240,240,240,240,240,240,240,240,240,240,240,240,240,240,240,240,240,240,82,81,80,82,81,79,81,81,79,79,80,80,80,79,79,79,80,80,78,79,79,79,79,79,79,79,80,79,80,80,79,79,79,79,80,80,80,79,79,79,80,79,79,79,79,80,79,81,82,81,81,82,85,86,87,88,88,88,88,87,86,87,87,87,88,87,87,87,88,88,87,88,88,87,89,90,90,89,88,85,89,89,240,240,240,240,240,240,95,94,94,94,95,96,96,97,99,98,98,97,96,96,97,95,95,96,97,97,96,98,97,97,95,98,98,99,99,98,98,99,99,98,98,97,97,97,97,99,96,98,96,97,97,96,95,95,94,93,92,92,92,91,89,89,84,82,76,76,77,75,75,74,74,74,75,76,77,76,78,78,78,80,80,80,84,84,87,88,88,88,88,89,90,91,93,93,93,95,92,89,240,240,240,240,81,83,81,81,80,78,78,78,77,240,240,240,240,240,240,79,77,77,77,78,78,77,77,77,76,77,78,77,76,76,77,78,77,76,77,77,78,77,77,77,78,78,78,77,77,77,77,77,77,77,77,76,76,76,76,75,75,75,76,76,75,76,76,76,76,75,76,78,77,78,79,79,79,79,80,80,81,80,80,82,80,81,81,81,82,81,81,80,81,81,81,80,82,80,79,82,82,80,81,80,80,80,81,80,80,80,80,79,80,81,78,77,79,79,81,80,80,80,80,81,80,81,80,80,80,80,81,81,80,80,81,81,81,81,81,81,81,82,82,82,83,82,82,82,82,82,83,81,82,82,82,81,82,81,81,81,82,81,81,81,83,81,81,81,82,81,82,81,82,81,81,240,240,240,240,240,240,240
240,240,240,240,240,240,240,240,240,240,240,240,240,240,240,240,240,240,240,240,240,240,82,81,80,82,81,79,81,81,79,79,80,80,80,80,79,79,80,80,78,79,79,79,79,79,79,78,79,79,80,79,79,79,79,79,80,80,80,79,79,79,80,79,79,79,80,80,80,81,83,82,83,83,87,89,89,90,90,90,90,89,88,89,89,89,90,88,88,88,89,89,89,89,89,89,90,90,90,90,89,87,90,90,240,240,240,240,240,240,95,94,94,95,95,96,96,97,99,98,98,97,96,96,97,95,96,97,97,97,96,98,97,97,95,98,98,99,99,98,98,99,98,98,98,97,97,97,97,99,96,98,96,97,97,96,95,95,94,93,92,92,92,91,89,89,83,82,76,75,77,75,75,74,74,74,75,76,77,77,78,78,79,81,82,82,85,85,88,89,89,90,91,92,92,93,95,95,95,97,97,101,240,240,240,240,240,240,81,81,80,78,240,240,240,240,240,240,240,240,240,240,77,78,78,78,79,78,78,77,76,77,78,77,76,76,77,77,77,76,77,77,78,77,77,77,77,77,77,77,77,77,77,77,77,77,77,76,77,76,76,75,75,75,76,76,75,76,76,77,77,75,76,78,77,78,79,79,79,79,80,80,81,80,79,82,80,81,81,81,82,81,81,80,81,81,81,80,82,81,79,82,82,80,81,80,80,80,81,80,80,80,80,79,80,81,78,77,79,80,81,80,80,80,81,81,81,81,80,81,80,80,81,81,80,80,81,81,81,81,81,81,81,82,82,82,82,82,82,82,82,81,82,81,82,82,82,81,81,81,81,81,82,81,81,81,83,80,81,81,82,81,82,81,82,81,81,240,240,240,240,240,240,240
240,240,240,240,240,240,240,240,240,240,240,240,240,240,240,240,240,240,240,240,240,240,82,81,80,82,81,79,81,80,79,79,80,80,80,80,79,79,80,80,78,78,78,79,79,79,79,78,79,79,79,79,79,79,79,78,80,80,80,79,79,79,80,240,79,80,80,80,80,82,83,83,84,85,89,91,91,92,92,91,91,90,89,89,89,90,90,89,89,89,90,90,89,90,90,90,91,91,91,91,90,89,90,90,240,240,240,240,240,240,95,94,94,95,95,96,96,97,99,98,98,97,96,95,97,95,96,97,97,97,96,98,97,98,95,98,98,98,99,98,98,99,98,98,97,97,97,97,97,98,96,98,96,97,97,96,95,95,94,93,92,92,92,91,89,89,82,81,75,75,77,75,75,74,74,75,76,77,78,78,79,79,80,83,83,83,86,86,88,90,90,91,92,93,94,95,97,97,97,98,100,106,106,116,240,240,240,240,240,240,240,240,240,240,240,240,240,126,127,126,124,240,240,79,78,79,80,78,79,77,77,78,78,77,76,76,76,77,77,76,77,77,78,77,77,77,78,78,78,78,77,77,77,77,77,77,78,77,77,77,76,76,75,76,77,77,76,76,77,77,77,76,76,78,77,78,79,79,78,78,79,80,81,80,79,82,80,81,81,81,82,81,81,80,81,81,81,80,82,81,79,82,82,80,81,80,80,80,81,80,80,80,80,79,80,81,78,78,79,80,81,80,80,80,81,81,80,81,80,81,80,80,81,81,80,80,81,81,81,81,80,81,80,81,81,81,82,82,82,82,82,81,82,81,82,82,82,82,81,81,81,81,82,81,81,81,83,81,81,81,82,81,82,82,82,81,82,240,240,240,240,240,240,240
240,240,240,240,240,240,240,240,240,240,240,240,240,240,240,240,240,240,240,240,240,240,82,81,80,82,81,80,80,80,79,79,80,80,80,80,79,79,80,80,78,78,78,79,79,79,79,78,79,79,79,79,79,79,79,79,80,80,80,79,79,80,80,240,79,80,81,81,81,82,84,84,85,86,90,93,93,94,94,92,92,91,90,90,90,91,91,90,90,90,90,91,91,91,92,91,93,93,92,92,91,90,91,91,240,240,240,240,240,240,95,94,94,95,95,96,96,97,99,98,98,97,96,95,97,95,96,97,97,97,97,98,97,98,96,98,98,98,99,98,98,99,98,98,97,97,96,97,97,98,96,98,96,97,97,96,95,95,94,93,92,92,92,90,89,89,80,80,75,75,76,75,75,74,74,75,76,77,78,78,79,80,80,84,85,84,87,87,89,91,91,93,94,95,96,98,99,99,100,100,102,109,108,115,118,121,122,240,240,240,240,240,240,240,240,124,124,125,126,125,124,122,240,240,80,240,81,80,79,78,77,78,78,77,76,76,76,77,77,76,77,77,77,77,77,77,78,77,77,77,77,77,77,77,77,77,78,77,77,77,77,76,76,77,77,77,76,76,77,77,78,76,77,78,77,78,78,79,78,78,79,79,80,79,79,82,80,80,81,81,82,81,81,80,81,81,81,80,82,81,79,82,82,80,81,80,80,80,81,80,80,80,80,79,80,81,78,78,79,80,81,80,80,80,81,80,80,81,80,81,80,80,80,81,80,80,81,81,81,80,80,81,80,81,81,81,81,81,82,82,82,81,82,81,82,82,82,82,81,81,81,81,83,81,81,81,83,81,81,81,82,81,82,82,82,81,82,240,240,240,240,240,240,240
240,240,240,240,240,240,240,240,240,240,240,240,240,240,240,240,240,240,240,240,240,240,82,81,80,82,81,80,80,80,79,79,80,80,80,80,79,78,80,80,78,78,78,79,79,79,79,78,79,79,79,79,79,79,79,79,79,80,80,79,79,80,81,240,240,80,81,81,81,83,84,85,86,88,92,94,96,96,95,94,94,93,92,92,92,93,92,91,91,91,92,92,92,92,93,92,94,94,93,93,92,91,92,92,92,240,92,94,95,94,96,94,94,95,95,96,96,97,98,98,98,97,96,95,97,95,96,97,97,97,97,99,97,98,96,98,99,98,98,98,97,99,98,98,97,97,96,97,97,98,96,97,96,97,97,96,95,95,94,93,93,92,92,91,89,88,79,79,75,75,76,75,75,75,74,75,76,77,78,79,80,82,81,85,86,85,88,88,90,91,92,94,95,96,98,100,100,101,101,102,104,113,110,116,118,121,122,122,123,123,240,123,122,123,123,123,123,125,125,125,123,122,122,240,240,240,240,81,81,79,78,79,79,77,77,76,76,77,77,76,76,76,77,77,77,77,77,77,77,77,77,77,77,77,77,77,78,77,77,78,77,77,77,77,78,78,77,77,77,78,78,77,77,78,76,78,78,78,78,77,78,79,80,79,79,81,80,80,81,81,82,81,81,80,81,81,81,80,82,81,79,82,82,80,81,80,80,80,81,80,80,80,80,79,80,81,78,78,80,80,81,80,80,80,80,81,80,81,80,81,80,80,80,80,80,80,81,81,81,80,80,80,80,81,81,81,81,81,82,82,82,81,82,81,82,82,82,82,81,81,82,82,83,81,81,81,83,81,81,81,82,81,82,82,82,81,82,240,240,240,240,240,240,240
240,240,240,240,240,240,240,240,240,240,240,240,240,240,240,240,240,240,240,240,240,240,82,81,80,82,81,80,80,80,79,79,80,80,80,80,79,78,80,80,78,78,78,79,79,78,79,78,79,79,79,79,80,79,79,79,79,80,80,79,79,80,81,240,240,80,82,81,81,83,84,86,87,90,93,95,97,97,97,95,96,95,95,95,94,95,94,93,93,93,93,93,93,93,94,94,96,95,94,94,93,93,93,93,94,92,93,95,96,94,96,95,95,95,96,97,96,97,98,98,98,97,96,95,97,95,96,97,98,98,97,99,98,98,96,99,99,98,98,98,97,98,98,98,97,97,96,97,97,98,96,97,96,97,97,96,95,95,94,94,93,92,92,91,89,88,78,79,75,75,76,75,75,75,74,75,76,77,78,79,80,83,82,85,87,86,88,88,90,92,92,94,96,97,99,100,101,101,103,103,105,117,114,117,119,121,122,122,123,123,123,123,122,122,122,122,123,124,124,124,123,122,122,240,240,240,240,83,82,80,79,80,79,78,77,76,77,77,77,76,76,76,77,77,77,77,77,77,77,77,77,77,77,77,77,76,77,77,77,78,77,77,77,77,78,78,77,77,78,78,78,77,77,78,76,77,78,78,78,77,78,79,80,79,78,81,79,80,80,81,82,81,81,81,81,81,81,80,82,81,79,83,82,80,81,80,80,80,81,80,80,80,80,79,80,81,78,78,80,80,81,80,80,80,80,81,80,81,80,81,80,80,80,81,80,80,81,81,81,81,80,81,80,81,81,81,81,81,82,82,82,81,82,81,82,82,82,82,82,82,82,82,83,81,81,81,83,81,81,81,82,81,82,82,82,81,82,240,240,240,240,240,240,240
240,240,240,240,240,240,240,240,240,240,240,240,240,240,240,240,240,240,240,240,240,240,82,81,80,82,81,80,80,80,79,79,80,80,80,80,79,78,80,80,78,78,78,79,79,79,79,78,79,79,79,79,80,79,79,79,79,80,80,79,240,240,240,240,240,240,82,82,82,83,85,86,88,91,94,96,99,98,98,97,97,97,97,97,96,97,96,95,95,95,95,95,94,95,96,96,97,97,95,96,95,95,95,95,95,94,95,96,97,95,97,96,95,96,96,97,97,97,98,98,98,97,96,96,97,95,96,97,98,98,97,99,98,99,96,99,99,98,98,98,97,98,98,98,97,97,96,97,97,98,96,97,96,97,97,96,95,95,94,94,93,92,92,91,89,87,77,78,75,75,76,75,75,75,75,76,77,77,79,80,81,84,83,87,88,87,89,89,90,92,93,95,96,98,100,101,102,103,106,108,113,120,117,119,121,122,122,122,123,124,123,123,122,122,122,122,123,123,124,124,123,121,122,121,116,114,240,240,240,81,79,80,80,78,77,76,77,77,77,77,77,76,77,77,77,77,77,77,77,77,77,77,77,76,76,76,77,77,77,78,77,77,77,77,78,78,77,77,78,78,78,77,76,78,76,77,77,78,78,77,78,78,79,78,78,81,79,80,80,80,81,81,80,80,81,81,81,80,82,81,79,82,82,80,81,80,80,80,81,80,80,80,80,79,80,81,78,79,80,80,81,80,80,80,80,81,80,81,80,81,80,80,80,81,81,80,81,81,81,81,80,81,80,81,81,81,81,82,82,82,82,81,82,81,82,82,82,82,82,81,82,82,83,81,81,81,83,81,81,81,82,81,82,82,82,81,81,240,240,240,240,240,240,240
240,240,240,240,240,240,240,240,240,240,240,240,240,240,240,240,240,240,240,240,240,240,82,81,80,82,81,80,80,80,79,79,81,80,80,80,80,78,80,80,78,78,78,79,79,79,79,78,79,79,79,79,79,79,79,79,79,80,80,79,79,79,82,240,240,240,83,82,82,84,85,87,88,91,94,97,99,98,98,97,98,97,98,98,97,98,97,96,96,96,96,96,96,96,97,98,98,98,97,98,96,97,97,97,97,96,96,98,98,97,98,96,96,97,96,97,97,97,98,98,98,97,96,96,97,96,97,98,98,98,98,99,98,99,97,99,99,98,98,97,97,98,98,98,97,97,96,97,97,98,96,97,96,97,97,96,95,95,94,93,93,92,92,90,89,86,77,78,76,75,76,75,75,75,75,76,77,78,79,81,82,85,84,88,89,87,89,89,90,91,92,95,96,99,102,103,240,240,113,120,120,121,119,120,121,122,123,123,123,124,123,123,123,122,122,122,123,123,124,124,122,121,121,121,116,114,113,240,240,240,77,80,79,77,77,76,77,77,77,77,76,76,76,77,77,77,76,77,77,77,77,76,76,76,76,76,77,77,77,77,77,77,76,76,77,77,77,77,77,78,78,76,76,77,76,77,77,78,78,77,77,78,79,78,78,80,79,80,80,80,81,81,80,80,81,81,81,80,82,81,79,82,82,80,81,80,80,80,81,80,80,80,80,79,80,81,78,79,80,80,81,80,80,80,80,81,80,81,80,81,80,80,80,80,80,80,81,81,81,81,80,81,80,81,81,81,81,82,82,82,82,81,82,81,82,82,82,82,82,81,82,82,82,81,81,81,83,81,81,81,82,81,82,82,82,81,81,240,240,240,240,240,240,240
240,240,240,240,240,240,240,240,240,240,240,240,240,240,240,240,240,240,240,240,240,240,82,81,80,82,81,80,80,80,79,79,81,80,80,80,80,78,80,80,78,78,78,79,79,79,79,78,79,79,79,78,79,79,79,79,79,80,80,79,79,79,240,240,240,240,83,83,83,84,85,87,89,92,95,98,99,98,98,98,98,98,98,98,98,98,97,97,97,97,97,97,97,97,98,99,99,99,98,98,98,98,98,98,98,98,98,99,99,98,99,98,97,98,97,98,98,97,99,98,98,97,96,96,97,96,97,97,98,98,97,99,98,99,96,99,99,98,98,97,97,98,97,97,97,97,96,97,97,98,96,97,96,97,97,96,95,95,94,93,92,92,92,90,88,85,76,78,76,75,76,76,76,76,76,76,77,78,79,82,82,86,85,88,89,87,88,88,89,90,92,95,96,100,104,240,240,240,119,122,121,122,120,120,121,122,123,123,123,124,123,123,122,122,122,122,123,123,123,124,122,121,121,121,117,116,114,240,240,240,240,80,79,77,76,76,76,77,77,76,76,76,76,77,77,76,76,77,77,77,77,77,77,76,77,76,77,77,77,77,77,77,76,76,77,77,77,76,77,77,77,76,76,77,76,77,77,78,78,77,77,78,79,78,78,80,79,79,80,80,81,81,80,80,80,81,80,80,82,80,79,82,82,80,81,80,80,80,81,80,80,80,80,79,80,81,78,79,80,80,81,80,80,80,80,81,80,81,80,81,80,80,80,80,80,80,81,81,80,80,80,80,80,81,80,80,81,81,81,81,81,80,82,81,82,82,82,82,82,81,82,82,82,81,81,81,83,81,81,81,82,81,82,82,82,81,81,240,240,240,240,240,240,240
240,240,240,240,240,240,240,240,240,240,240,240,240,240,240,240,240,240,240,240,240,240,82,81,80,82,81,80,80,80,79,79,81,80,80,80,80,79,80,80,78,78,78,79,79,79,79,78,79,79,79,78,79,79,78,79,79,79,80,78,79,79,240,240,240,240,83,83,83,85,86,88,91,93,96,98,99,98,98,98,98,98,98,98,98,99,97,97,97,98,98,98,97,98,98,99,99,99,98,98,98,98,98,98,98,98,98,99,99,98,99,98,98,98,98,98,98,97,99,98,98,97,96,96,97,96,97,97,98,98,97,99,97,99,96,98,98,98,97,97,97,97,97,97,97,97,96,97,97,98,96,97,96,97,96,96,95,94,94,93,92,92,92,90,87,85,77,78,76,76,77,76,76,76,76,77,78,79,80,82,83,86,86,87,88,86,87,87,88,89,90,93,240,240,240,240,240,240,240,122,121,122,119,120,121,122,122,122,123,123,122,123,122,122,122,122,123,123,123,124,123,122,122,121,119,118,115,115,240,240,76,80,79,77,77,76,76,76,77,76,76,76,76,77,77,77,76,77,77,77,77,77,77,76,76,76,77,77,77,77,77,77,76,76,76,77,77,77,77,77,77,76,76,77,76,77,77,78,78,77,77,78,79,78,78,80,79,79,80,80,81,81,80,80,80,81,80,79,82,80,79,82,82,79,81,79,80,80,81,80,80,80,80,78,80,80,78,79,80,80,81,80,80,80,80,81,80,81,80,81,80,80,80,80,80,80,81,81,80,80,80,80,80,81,80,80,81,81,81,81,81,81,82,81,82,82,82,82,82,81,82,82,82,81,81,81,83,81,81,81,82,81,82,82,82,82,82,240,240,240,240,240,240,240
240,240,240,240,240,240,240,240,240,240,240,240,240,240,240,240,240,240,240,240,240,240,82,81,80,82,81,80,80,80,79,79,80,80,80,80,80,79,80,80,78,78,78,79,79,78,79,78,78,79,79,78,78,79,78,79,79,79,79,78,79,79,240,240,240,240,84,84,84,86,87,89,93,93,96,99,99,98,97,97,97,97,98,98,98,98,97,97,97,97,97,97,97,98,98,98,98,98,98,98,98,98,98,98,98,98,98,99,99,98,99,98,98,98,98,98,98,98,98,98,98,97,96,96,97,96,97,97,97,98,98,99,97,99,96,98,98,98,97,97,97,97,97,97,97,97,96,97,97,98,96,97,96,97,96,95,95,94,94,93,92,92,92,90,87,85,77,79,77,77,77,77,77,77,77,79,80,81,82,83,84,87,86,87,87,85,86,85,87,87,88,90,240,240,240,240,240,240,240,240,121,121,119,119,121,122,122,122,122,123,122,123,122,122,121,122,123,123,123,124,123,122,122,121,120,119,115,117,240,240,240,81,79,78,77,77,76,76,77,77,77,77,77,77,77,77,77,77,77,77,77,77,77,76,76,76,76,77,76,77,77,77,76,76,76,77,77,77,76,77,77,77,76,77,76,77,77,78,78,77,77,78,79,78,78,80,79,79,80,79,81,81,80,80,80,81,80,79,82,80,79,82,82,79,81,79,80,80,81,80,80,80,80,78,80,80,78,79,80,80,81,80,80,80,80,81,80,81,80,81,80,80,80,80,80,80,81,81,80,80,80,80,80,81,80,80,81,81,81,81,81,81,82,81,82,82,82,82,82,81,82,82,82,81,81,81,83,81,81,81,82,81,82,82,82,82,82,240,240,240,240,240,240,240
240,240,240,240,240,240,240,240,240,240,240,240,240,240,240,240,240,240,240,240,240,240,82,81,80,82,81,80,80,80,79,79,80,80,80,80,80,78,80,80,78,78,78,79,79,79,79,78,78,79,79,78,78,79,78,79,79,79,80,78,79,240,240,240,240,240,85,85,85,87,88,90,93,94,97,99,99,98,97,97,97,97,97,97,97,97,96,96,96,97,97,97,97,98,97,98,98,98,98,98,97,98,98,98,98,98,98,99,99,98,99,98,98,98,98,98,98,98,98,98,98,97,96,96,97,96,97,97,97,98,98,99,97,99,96,98,98,98,97,97,97,97,97,97,97,97,96,97,97,98,96,97,96,97,96,95,94,94,94,93,92,91,91,90,87,85,77,79,78,77,78,78,78,78,78,80,81,82,83,84,84,86,85,86,86,84,84,84,85,86,87,88,240,240,240,240,31,240,240,240,121,121,119,119,121,122,122,122,123,123,123,123,122,122,122,123,124,123,123,124,123,123,122,122,121,120,117,118,240,240,240,81,79,78,77,77,77,77,77,77,77,77,77,77,77,77,77,77,77,77,77,77,77,76,76,76,76,77,76,77,77,76,76,76,76,77,77,76,76,77,77,77,76,77,77,77,77,78,78,77,77,78,79,78,78,80,78,79,80,79,81,80,80,80,80,81,80,79,82,80,79,82,82,79,81,79,80,80,80,80,80,80,80,78,80,80,79,79,80,80,81,80,80,80,80,81,80,81,80,81,80,80,80,80,81,80,81,81,81,80,80,80,80,81,80,80,81,81,81,81,81,81,82,81,82,82,82,82,82,81,82,82,82,81,81,81,83,81,81,81,82,81,82,82,82,82,81,240,240,240,240,240,240,240
240,240,240,240,240,240,240,240,240,240,240,240,240,240,240,240,240,240,240,240,240,240,82,81,80,82,81,80,80,80,79,79,80,80,80,80,80,78,80,80,78,77,77,78,79,78,79,78,78,79,79,78,78,79,78,79,79,79,80,78,79,240,240,240,240,240,86,86,86,87,89,91,93,94,96,98,98,97,96,96,96,96,96,96,96,97,96,96,96,96,96,97,96,98,97,98,98,98,97,98,97,98,98,98,98,98,98,99,99,98,98,97,98,98,98,98,98,97,98,98,98,97,97,96,97,96,97,97,97,98,97,99,97,98,96,98,98,98,97,97,97,97,97,97,97,96,96,97,97,98,96,97,96,97,96,95,95,94,94,93,92,92,92,90,88,86,78,80,79,78,79,80,80,80,80,82,83,83,84,84,85,86,85,85,86,83,83,83,84,84,86,87,240,240,240,240,33,240,240,240,122,122,120,120,121,122,123,122,123,124,123,124,123,123,123,124,124,124,124,124,123,123,122,122,121,121,118,119,240,240,76,81,79,78,77,77,77,77,77,77,77,77,77,77,77,77,77,77,77,77,77,77,77,77,76,76,76,77,76,77,77,76,76,76,76,77,77,76,76,77,77,77,76,77,77,77,77,78,78,77,77,78,79,78,78,80,79,79,80,79,81,81,80,80,80,81,80,79,82,80,79,82,82,79,81,80,80,80,81,80,80,80,80,78,80,80,79,79,80,80,81,80,80,80,80,81,80,81,81,81,81,81,80,80,81,80,81,81,81,81,80,80,80,81,80,80,81,81,81,81,81,81,82,81,82,82,82,82,82,81,82,82,82,81,81,81,83,82,82,81,82,82,82,82,82,82,82,240,240,240,240,240,240,240
240,240,240,240,240,240,240,240,240,240,240,240,240,240,240,240,240,240,240,240,240,240,82,81,80,82,81,80,80,80,79,79,80,80,80,80,80,78,80,80,78,77,77,78,79,78,79,78,78,79,78,78,78,78,78,79,79,79,80,78,240,240,240,240,240,240,86,86,86,87,88,90,92,93,96,97,96,95,94,94,94,94,95,95,95,95,94,95,95,95,95,96,96,97,97,98,98,97,97,97,97,98,98,97,98,98,98,99,99,98,98,97,98,98,98,98,98,98,98,98,98,97,97,96,97,96,97,97,97,98,97,99,97,98,96,98,98,98,97,97,97,97,97,97,97,96,96,97,97,98,96,97,96,97,97,96,95,95,94,93,93,92,92,91,89,87,80,81,80,79,81,82,82,82,83,84,84,84,84,84,85,86,85,84,85,82,82,81,83,82,84,86,240,240,240,240,34,240,240,240,123,122,120,120,121,122,123,122,123,124,124,124,124,124,123,124,125,123,124,124,123,123,123,122,122,121,119,119,240,240,76,80,78,78,77,77,77,77,77,77,77,77,76,76,77,77,76,76,76,77,77,77,77,76,76,76,76,77,77,77,77,77,76,76,76,77,77,76,76,77,77,77,76,77,77,77,77,78,78,77,77,78,79,78,78,81,79,79,81,80,81,81,80,80,80,81,80,80,82,81,79,82,82,79,81,80,80,80,81,80,80,80,80,78,80,80,79,79,80,80,80,80,80,80,81,81,80,81,80,81,81,81,80,80,81,80,81,81,81,81,80,81,80,81,80,81,81,81,81,81,81,81,82,81,82,82,82,82,82,81,82,82,82,81,81,81,83,82,82,82,82,82,82,82,82,82,82,240,240,240,240,240,240,240
240,240,240,240,240,240,240,240,240,240,240,240,240,240,240,240,240,240,240,240,240,240,82,80,80,82,81,80,80,80,79,79,80,80,79,80,80,78,80,80,78,77,77,78,79,78,79,78,78,80,78,78,78,78,78,78,79,79,79,78,240,240,240,222,240,240,86,86,86,87,87,89,91,92,94,96,94,92,90,91,91,92,93,93,93,93,93,93,93,94,94,95,95,97,96,97,97,97,96,96,96,97,97,97,97,98,98,98,99,98,98,97,98,98,98,98,98,98,98,98,98,97,97,96,97,97,97,97,97,98,97,99,97,98,96,98,98,97,97,97,97,97,97,97,97,96,95,97,97,98,96,97,97,97,97,96,95,95,94,93,93,92,92,91,90,89,83,83,82,81,82,83,84,84,84,85,85,85,84,84,85,85,85,83,84,81,81,80,81,80,82,84,240,240,240,240,240,240,240,240,125,124,122,121,122,123,123,123,124,124,124,125,124,124,124,124,125,123,124,124,123,124,123,123,122,122,121,120,240,240,75,79,78,78,77,77,77,77,77,77,77,77,76,76,76,76,76,76,76,76,76,76,76,76,76,76,76,77,77,77,77,77,76,76,76,76,77,76,76,76,77,77,76,76,77,77,77,78,78,78,77,78,79,79,78,81,79,80,81,80,81,81,80,80,81,81,80,80,82,81,79,82,82,79,81,80,80,80,81,80,80,80,81,79,80,80,79,79,80,80,80,80,80,80,81,81,80,81,80,81,80,81,80,80,81,80,81,81,81,81,80,81,80,81,80,81,81,81,81,81,81,81,82,81,82,82,82,82,82,81,82,82,82,81,81,81,83,82,82,82,82,82,82,82,83,82,82,240,240,240,240,240,240,240
