0,0,0,0,0,0,0,0,0,0,0,0,0,0,0,0,0,0,0,0,0,0,82,81,80,82,81,80,81,81,80,80,80,80,79,79,79,79,80,80,78,77,78,78,78,77,78,79,78,79,78,78,77,77,77,77,78,78,78,78,78,78,78,79,80,81,82,81,81,81,80,80,81,83,84,83,82,81,80,80,81,81,83,83,84,84,83,83,83,83,84,86,87,89,89,90,89,89,89,89,88,89,89,89,89,89,90,90,91,93,93,93,96,98,97,99,98,99,99,99,98,98,98,97,97,97,98,97,97,97,96,96,95,95,93,94,93,94,93,93,92,93,93,93,94,93,93,94,96,97,95,97,97,97,97,97,96,96,96,96,96,95,95,94,94,94,92,91,91,90,90,89,88,87,86,85,84,82,80,79,80,79,78,77,77,77,76,75,75,75,77,0,0,0,139,142,137,136,134,131,127,125,125,123,124,124,124,124,124,124,124,125,125,125,125,125,125,124,124,125,125,125,124,125,126,126,125,124,123,123,0,78,77,79,77,79,78,0,0,0,0,77,0,0,0,0,0,0,76,76,76,76,76,76,76,76,76,76,77,77,76,76,76,76,76,76,76,76,76,76,76,76,76,75,77,76,76,77,78,79,78,77,78,79,79,80,78,81,85,82,84,83,83,0,0,0,82,81,83,83,84,86,85,81,83,82,83,83,83,82,82,83,83,82,81,80,80,80,80,80,80,80,80,80,81,80,80,80,80,81,80,81,80,80,80,80,81,80,81,80,81,81,81,81,81,81,81,81,81,81,81,81,81,81,82,81,82,81,82,81,82,82,82,81,82,82,83,82,82,82,82,82,82,83,83,82,81,0,0,0,0,0,0,0
0,0,0,0,0,0,0,0,0,0,0,0,0,0,0,0,0,0,0,0,0,0,82,81,80,82,81,80,81,81,80,80,80,80,79,79,79,79,80,80,78,78,78,78,78,77,78,79,78,79,78,78,77,77,77,77,78,78,78,78,78,78,78,79,79,80,81,81,81,80,80,80,81,81,83,82,82,81,80,80,80,80,82,82,82,83,82,82,81,81,82,84,86,88,87,89,88,87,87,87,87,88,88,88,88,89,89,90,91,93,93,93,96,98,98,99,98,99,99,99,98,98,98,97,97,97,97,97,97,97,96,96,95,94,92,92,90,88,87,87,87,87,90,89,91,89,88,88,92,95,94,97,97,96,97,96,96,96,96,96,96,96,96,95,95,94,93,92,92,91,90,89,89,87,86,85,83,82,80,79,80,78,78,77,77,77,76,76,76,75,77,0,0,0,138,140,136,135,133,130,127,125,125,123,124,124,124,124,124,124,124,125,124,125,125,125,125,124,124,125,125,125,125,125,126,126,125,125,124,124,0,79,78,79,77,80,0,0,0,0,0,0,0,230,230,230,0,0,0,0,0,76,76,75,75,75,75,76,76,77,77,77,76,76,76,76,77,76,76,76,76,77,76,76,77,75,75,76,77,78,78,78,79,80,80,81,79,82,86,0,0,0,0,0,0,0,0,0,0,0,0,87,86,82,83,82,84,84,83,83,83,83,83,82,81,81,80,80,80,80,80,80,80,80,81,80,80,80,80,81,80,81,80,80,80,81,81,80,81,80,82,82,81,81,81,81,81,81,82,81,81,81,81,81,82,81,82,81,81,82,82,82,82,81,82,82,83,83,82,82,82,83,82,83,83,82,81,0,0,0,0,0,0,0
0,0,0,0,0,0,0,0,0,0,0,0,0,0,0,0,0,0,0,0,0,0,82,81,80,82,81,80,81,81,80,80,80,80,79,79,79,79,80,80,78,78,78,78,78,77,78,78,78,79,78,78,78,77,77,77,78,78,78,78,78,78,78,79,79,80,81,80,80,80,80,79,80,80,82,81,81,80,79,79,79,79,81,80,80,81,80,80,80,79,79,81,83,85,85,86,86,85,85,86,85,86,86,86,87,88,89,89,91,93,93,94,96,98,98,99,98,99,99,99,98,98,98,97,97,98,98,97,97,97,96,95,94,93,90,90,85,84,81,81,82,82,85,84,86,85,86,85,87,92,92,95,96,96,96,96,96,96,96,96,96,96,96,96,96,95,94,93,93,92,91,90,89,87,86,84,83,82,80,79,79,78,78,77,77,77,76,76,76,76,78,0,0,0,138,139,135,134,132,129,126,125,125,123,124,124,124,124,124,124,124,125,124,125,125,125,126,125,125,125,125,125,125,125,126,127,126,126,124,124,0,80,78,0,0,0,0,240,240,240,240,0,0,230,230,230,229,228,224,0,0,0,75,74,74,74,75,75,76,76,76,76,76,76,76,76,76,76,76,76,76,77,76,76,77,75,75,76,77,78,78,78,79,80,81,81,80,83,87,0,0,0,0,124,123,124,124,125,125,126,127,0,87,83,84,83,84,85,84,83,83,83,84,83,81,81,80,80,80,80,80,80,80,80,81,80,80,80,80,81,80,81,80,80,80,81,81,80,82,80,82,82,82,81,81,81,81,81,82,81,81,81,81,81,82,81,82,82,81,82,82,83,82,82,82,82,83,83,83,82,82,83,82,83,83,82,80,0,0,0,0,0,0,0
0,0,0,0,0,0,0,0,0,0,0,0,0,0,0,0,0,0,0,0,0,0,82,81,80,82,81,80,81,81,80,80,80,80,80,79,79,79,80,80,78,78,78,78,78,77,78,78,78,79,78,78,78,77,77,77,78,78,78,78,78,78,78,78,79,79,80,79,80,80,79,79,79,79,81,80,80,79,79,79,79,78,80,79,79,80,79,79,78,78,78,78,79,82,82,84,84,83,83,84,84,84,84,84,85,86,88,88,91,93,93,94,96,98,98,100,98,100,99,99,98,98,98,97,97,98,98,97,96,96,95,94,93,91,88,86,82,81,79,78,80,79,82,82,83,83,84,83,85,88,90,94,95,95,95,96,96,95,96,96,96,96,96,96,96,96,95,94,93,93,91,90,89,87,86,84,83,81,80,79,79,78,78,77,77,77,76,76,76,76,79,80,0,0,137,137,135,133,130,128,126,125,126,124,124,124,124,124,124,124,124,125,125,125,125,125,126,125,125,125,125,125,125,125,127,127,127,127,125,125,0,0,0,0,0,0,240,240,240,240,240,231,232,230,230,230,229,228,224,223,222,0,0,0,0,74,0,75,76,76,76,76,76,75,75,75,76,76,76,76,76,76,76,75,76,75,75,76,77,78,79,78,80,81,82,82,81,84,88,0,0,121,123,124,123,124,124,125,126,127,127,125,0,84,85,84,85,85,84,84,84,84,84,83,82,81,80,80,80,80,80,80,80,80,81,80,80,80,80,81,80,81,79,81,80,81,81,80,82,80,83,82,82,82,81,82,81,81,82,81,81,81,82,81,82,81,82,82,82,82,82,83,82,82,82,82,83,83,83,82,82,83,82,83,82,81,80,0,0,0,0,0,0,0
0,0,0,0,0,0,0,0,0,0,0,0,0,0,0,0,0,0,0,0,0,0,82,81,81,82,81,80,81,81,80,80,80,81,80,79,79,79,80,80,78,78,78,78,78,77,78,78,78,79,78,78,78,77,77,77,78,78,79,78,78,78,78,78,79,79,80,79,79,79,79,79,79,79,80,80,80,79,78,79,78,78,79,79,79,79,78,79,78,78,77,77,78,79,80,82,83,82,82,84,83,83,83,82,83,85,87,87,90,93,92,93,95,98,98,100,98,100,99,99,98,98,98,97,97,98,98,97,96,96,94,93,93,90,86,84,81,80,78,78,79,78,80,80,81,81,83,82,84,87,89,92,94,94,95,95,96,95,96,96,96,96,97,97,97,96,96,95,95,94,92,91,89,87,85,83,82,80,79,78,78,77,78,77,77,77,76,76,76,76,79,0,0,0,136,135,134,132,130,128,127,126,126,124,125,125,125,125,124,124,124,124,124,125,125,125,125,125,125,125,125,125,125,126,127,128,128,128,125,0,0,0,0,0,232,240,240,240,240,240,240,231,231,230,230,229,228,227,224,223,222,221,0,0,0,0,0,0,76,76,76,76,76,75,76,75,76,76,76,75,76,76,76,76,76,75,75,76,77,78,79,79,81,82,83,83,82,85,89,112,0,121,123,124,123,123,124,125,126,127,127,125,0,0,85,84,86,86,85,84,84,84,84,84,82,81,80,80,80,80,80,80,79,80,81,80,80,80,80,80,80,81,79,81,80,81,81,80,82,80,83,82,82,82,81,82,81,81,82,81,81,81,82,81,82,81,82,82,82,82,82,83,82,82,82,82,83,83,83,83,83,83,83,83,82,81,80,0,0,0,0,0,0,0
0,0,0,0,0,0,0,0,0,0,0,0,0,0,0,0,0,0,0,0,0,0,82,81,81,82,81,80,81,81,80,80,80,81,80,79,80,79,80,80,77,78,78,78,78,77,78,78,78,79,78,78,78,77,77,77,78,78,78,78,78,78,78,78,78,78,79,79,79,79,78,78,78,78,79,79,79,78,78,78,78,78,78,78,78,79,78,78,78,77,76,77,77,78,79,81,82,81,82,83,82,82,82,81,82,84,87,87,90,92,91,92,94,98,98,99,98,100,99,99,98,98,98,97,98,98,98,97,96,96,94,93,92,88,84,82,79,79,78,77,78,78,79,79,80,80,83,81,84,87,89,92,94,94,95,96,96,96,97,97,97,97,97,97,97,97,97,95,95,94,92,91,90,87,86,83,82,79,78,78,78,77,77,77,76,77,77,76,76,76,80,0,153,148,134,134,133,131,129,128,126,126,126,124,125,125,125,125,124,124,124,124,124,125,124,125,125,125,124,125,125,125,125,126,128,129,129,130,0,0,0,0,0,240,240,240,240,240,240,240,240,230,231,229,229,229,228,227,224,223,222,221,222,221,0,0,0,0,0,76,76,76,76,75,76,75,76,76,76,75,76,76,76,76,76,75,75,76,78,79,80,80,82,83,84,84,83,86,97,113,121,121,123,123,123,123,124,124,126,127,127,126,122,0,86,85,86,86,85,85,85,84,84,84,82,81,80,81,80,80,80,80,79,80,81,80,80,80,80,80,80,80,79,80,79,80,80,80,82,80,82,82,81,81,81,82,81,81,82,81,81,81,82,81,82,81,82,82,82,82,82,83,82,82,82,82,83,82,83,83,83,83,83,84,83,82,81,0,0,0,0,0,0,0
0,0,0,0,0,0,0,0,0,0,0,0,0,0,0,0,0,0,0,0,0,0,81,81,81,82,81,80,81,81,80,80,80,81,80,79,80,79,80,80,77,78,78,78,78,77,78,78,78,78,78,78,77,77,76,77,77,78,78,78,78,77,78,78,78,78,79,78,78,78,78,78,78,78,78,79,78,78,78,78,78,77,78,78,78,78,77,78,77,77,76,76,76,78,78,80,82,81,82,83,82,83,82,82,83,85,88,88,90,92,91,92,93,97,98,100,99,100,99,99,98,98,98,97,98,99,98,98,96,96,94,92,91,87,84,81,79,79,77,77,78,77,79,79,80,80,82,81,83,87,88,92,94,94,95,96,96,96,97,97,97,97,98,98,97,97,97,95,95,95,93,91,90,88,86,82,81,78,78,77,77,77,77,77,76,78,77,77,77,77,82,0,0,137,132,132,130,129,126,126,125,125,125,124,124,124,124,124,123,124,124,124,124,124,125,125,126,125,125,126,125,125,126,127,129,129,130,0,0,0,0,0,228,231,232,240,240,240,240,240,240,231,231,229,229,229,228,227,225,224,223,222,223,223,223,222,223,220,0,0,76,76,76,75,76,75,76,76,76,75,76,76,75,76,76,75,75,76,78,79,80,81,82,84,84,84,84,86,102,114,120,121,122,123,123,123,124,125,126,127,127,127,123,0,86,85,86,86,85,85,85,85,85,84,82,81,80,80,80,80,80,80,79,80,81,80,80,80,80,80,80,80,79,80,79,80,80,80,81,80,82,81,81,81,81,81,81,81,82,81,81,81,82,81,82,81,82,82,82,82,82,83,82,82,82,82,83,82,83,83,83,82,83,84,83,82,81,0,0,0,0,0,0,0
0,0,0,0,0,0,0,0,0,0,0,0,0,0,0,0,0,0,0,0,0,0,81,81,81,82,81,80,81,81,81,80,80,81,80,79,80,79,80,80,77,78,78,78,78,77,78,78,78,78,78,77,77,77,76,76,77,77,78,77,78,77,78,78,78,78,79,78,78,78,78,78,77,78,78,79,78,78,77,78,77,77,78,77,77,78,77,77,77,77,76,76,76,77,78,80,82,82,82,84,83,84,84,84,85,87,90,89,91,93,91,93,94,97,98,99,99,100,99,99,98,98,98,97,98,99,98,98,97,96,94,92,91,87,84,82,80,79,78,78,78,78,80,79,80,80,83,81,84,87,88,92,93,93,94,95,96,96,97,97,97,97,98,98,97,97,97,96,95,95,93,92,91,88,86,81,80,78,77,77,77,77,76,76,76,78,77,77,77,78,84,0,152,0,130,129,128,127,125,125,124,124,124,124,124,124,124,124,123,123,124,124,124,124,125,125,126,125,125,126,126,126,127,129,130,131,132,0,0,0,0,0,223,229,230,240,240,240,240,240,240,230,231,229,230,229,228,227,226,225,224,223,224,224,224,224,225,222,224,0,0,0,76,76,76,76,76,76,76,75,76,76,76,76,76,75,75,76,79,79,80,82,83,84,84,84,84,86,103,113,118,120,122,123,122,122,124,124,126,127,127,127,123,0,86,85,86,86,85,85,85,85,85,84,82,81,80,80,79,80,80,80,79,80,81,80,80,80,80,80,80,80,79,80,79,79,80,80,81,80,82,81,81,81,80,81,81,81,82,81,81,81,82,81,82,81,82,81,82,82,82,82,82,82,82,82,83,82,82,82,82,82,83,83,83,82,81,0,0,0,0,0,0,0
0,0,0,0,0,0,0,0,0,0,0,0,0,0,0,0,0,0,0,0,0,0,81,81,80,82,81,80,81,81,81,80,80,81,80,79,80,80,80,80,77,78,78,78,78,77,78,78,78,78,78,77,77,77,76,76,77,77,78,77,78,77,78,78,78,78,79,78,78,78,78,78,77,77,78,78,78,78,77,78,77,77,77,77,77,78,77,77,77,77,76,76,76,77,78,80,82,83,83,85,84,85,85,85,87,88,91,90,92,93,92,93,94,98,99,100,99,100,99,99,98,98,98,98,98,99,99,98,97,96,94,92,91,87,85,83,81,81,79,79,79,79,81,81,81,81,83,82,85,88,88,91,93,93,93,94,95,95,97,96,97,97,97,97,97,97,96,96,95,95,93,92,91,88,86,80,79,77,77,76,76,76,76,76,75,78,78,77,0,79,86,0,0,132,128,127,126,126,124,124,124,124,124,123,124,124,124,124,123,123,123,124,123,124,124,125,126,125,126,126,126,126,127,129,131,131,0,0,215,0,219,0,222,227,226,240,240,240,232,240,232,230,230,229,229,228,227,227,226,225,225,224,225,225,225,225,226,224,225,222,0,0,0,76,76,76,77,76,77,76,76,76,76,76,76,75,75,76,79,79,81,82,83,84,85,85,85,87,103,112,117,119,121,122,122,122,123,124,126,127,127,127,123,0,86,85,86,87,85,85,85,85,85,84,82,81,80,80,79,80,80,80,79,80,80,80,80,80,80,80,80,80,79,80,79,79,80,80,80,80,81,81,81,81,80,81,81,81,82,81,81,81,82,81,82,81,82,81,81,82,81,82,82,82,82,82,82,82,82,82,82,82,83,83,83,82,81,0,0,0,0,0,0,0
0,0,0,0,0,0,0,0,0,0,0,0,0,0,0,0,0,0,0,0,0,0,81,81,81,82,81,79,81,81,81,80,80,81,80,79,80,80,80,80,77,78,78,78,78,77,78,78,78,78,77,77,77,77,76,77,77,77,78,77,78,77,78,78,78,78,78,78,78,78,78,78,77,77,78,78,78,78,77,78,77,77,77,77,77,78,77,77,77,76,76,76,76,77,78,80,82,83,83,85,84,85,85,86,88,89,92,91,92,93,92,93,94,98,99,100,99,100,99,99,98,98,98,97,98,99,98,98,97,96,94,92,91,88,85,85,83,82,81,81,81,81,83,82,82,82,84,82,85,88,88,91,92,92,92,93,94,94,95,95,96,95,96,97,96,96,96,95,95,95,93,92,91,89,87,80,78,77,76,76,76,76,76,76,75,79,80,0,0,0,0,131,132,130,127,126,125,125,124,124,124,124,124,123,124,124,124,124,123,123,123,124,124,124,125,126,126,126,126,127,126,126,128,130,132,0,0,0,215,217,218,0,219,223,222,230,240,231,230,231,231,228,229,228,228,228,227,226,225,226,225,224,225,226,226,226,227,226,226,224,224,0,0,77,77,77,78,0,0,76,77,77,76,77,76,75,75,76,79,79,81,82,83,84,85,85,85,87,103,111,116,119,121,122,121,122,123,124,125,127,127,127,123,123,86,86,87,87,85,85,85,85,85,84,82,81,80,80,80,80,80,80,79,80,80,80,80,80,80,80,80,80,79,80,79,79,80,80,80,80,81,80,81,81,80,81,81,81,81,81,81,81,82,81,81,81,82,81,81,82,81,82,82,81,82,82,82,81,82,82,82,82,83,83,83,82,81,0,0,0,0,0,0,0
0,0,0,0,0,0,0,0,0,0,0,0,0,0,0,0,0,0,0,0,0,0,81,81,81,83,82,79,81,81,81,80,80,81,79,79,80,80,80,80,77,78,78,77,78,77,78,78,77,78,77,77,77,77,76,76,77,77,78,77,78,77,78,78,78,78,78,78,78,78,78,78,78,77,78,78,78,78,77,78,77,77,77,78,77,78,77,77,77,76,76,76,76,77,78,80,83,83,84,85,85,86,86,88,89,91,93,92,94,94,93,94,94,97,99,100,99,99,99,99,98,98,98,97,98,99,99,98,97,96,95,92,92,88,86,86,84,84,83,83,83,83,84,83,84,83,84,83,85,88,88,90,91,91,91,92,92,92,94,93,95,94,95,95,95,95,95,94,94,94,93,92,91,89,88,81,78,77,76,76,76,76,76,75,76,81,0,0,0,127,126,125,128,128,126,125,125,125,124,124,124,124,124,124,124,124,124,124,123,123,123,124,124,124,125,126,126,126,127,127,127,127,128,131,0,0,0,213,215,217,218,0,219,222,221,227,232,229,229,229,230,227,228,227,227,227,227,226,224,225,225,224,225,226,226,225,226,226,226,224,224,220,221,0,77,77,0,0,0,0,76,77,76,76,76,75,75,76,79,78,80,83,84,85,85,86,86,87,103,110,115,118,120,121,121,121,123,124,125,127,127,127,123,123,86,85,86,87,85,85,85,85,85,84,82,81,80,80,80,80,80,80,79,80,81,80,80,80,80,80,80,80,79,80,80,79,80,80,80,80,81,80,81,81,80,81,81,81,81,81,81,81,81,81,81,81,82,81,81,82,81,82,82,81,82,82,82,81,82,82,82,82,83,83,83,83,82,0,0,0,0,0,0,0
0,0,0,0,0,0,0,0,0,0,0,0,0,0,0,0,0,0,0,0,0,0,81,81,81,83,82,79,82,81,81,80,80,81,79,79,80,80,80,80,77,78,78,77,78,78,78,78,78,78,78,77,77,77,77,77,77,78,78,77,78,78,78,78,78,78,78,78,78,78,78,78,78,77,78,78,78,77,77,78,77,77,77,77,77,78,77,78,77,77,76,76,76,77,79,81,83,84,84,85,85,86,87,89,90,91,94,93,95,95,94,95,95,97,99,100,99,99,98,98,98,97,98,97,98,99,99,98,98,96,95,92,92,89,87,87,85,84,84,84,84,84,86,84,85,84,85,84,86,88,88,89,90,90,90,90,91,91,92,92,93,93,94,94,94,94,94,94,93,94,92,92,91,89,89,83,78,78,77,77,78,77,76,74,76,0,127,131,130,126,125,125,127,127,126,125,125,125,124,124,124,124,124,124,124,124,124,124,123,123,123,124,124,124,125,126,126,126,127,128,127,127,130,0,0,0,0,214,216,218,219,218,220,224,222,226,231,228,228,228,228,226,227,226,226,226,226,225,224,225,225,224,225,226,226,226,226,226,227,225,225,221,223,228,0,0,0,0,0,0,0,0,75,76,75,75,75,75,79,78,81,83,84,85,85,86,86,87,102,109,113,117,119,121,121,121,123,124,125,127,127,127,124,123,85,85,86,86,85,84,85,85,84,84,82,81,80,80,80,80,80,80,79,80,81,80,80,80,79,80,80,80,79,80,80,79,80,80,80,80,81,80,80,80,80,81,81,80,81,81,81,81,81,81,81,81,82,81,81,82,81,81,82,81,82,82,82,81,81,82,82,81,82,82,82,83,82,0,0,0,0,0,0,0
0,0,0,0,0,0,0,0,0,0,0,0,0,0,0,0,0,0,0,0,0,0,81,81,81,83,82,80,82,81,81,80,80,81,79,78,80,80,80,79,78,78,78,78,79,78,78,78,78,78,78,78,78,77,78,77,78,78,78,77,78,78,78,78,78,78,78,78,78,78,78,78,78,77,78,77,78,77,77,77,77,77,77,77,77,77,76,77,76,76,76,76,76,77,78,81,83,83,84,85,86,87,87,89,91,92,94,93,95,95,94,95,96,97,99,99,98,98,98,98,98,97,98,97,98,99,99,98,98,96,95,93,93,90,88,88,87,86,85,85,86,86,87,86,86,85,86,85,86,88,88,88,89,89,89,89,89,89,90,90,92,91,93,93,92,93,93,93,93,93,92,91,91,89,89,84,79,79,79,80,82,81,84,0,0,0,124,129,127,126,125,125,126,127,126,125,125,125,125,124,124,124,124,124,124,124,124,124,123,123,123,124,124,124,125,126,126,126,127,128,128,0,0,0,0,0,0,215,217,218,219,217,218,222,221,225,230,227,227,226,227,225,226,225,226,226,226,225,224,225,225,224,226,226,227,226,227,227,228,226,226,224,225,229,221,0,0,0,189,0,0,0,75,75,75,75,75,75,79,78,81,84,84,85,86,86,87,88,102,108,112,116,119,121,121,121,123,124,125,127,127,127,124,123,85,85,86,87,85,85,85,85,84,84,82,81,81,80,80,80,80,80,80,80,81,80,80,80,80,80,80,80,80,80,80,79,80,80,80,80,81,80,80,80,80,81,81,80,81,81,81,81,81,81,81,81,82,81,81,82,81,81,82,81,82,82,82,81,81,82,82,81,82,82,82,82,82,0,0,0,0,0,0,0
0,0,0,0,0,0,0,0,0,0,0,0,0,0,0,0,0,0,0,0,0,0,81,81,81,83,82,80,81,81,81,80,80,81,79,78,81,80,80,79,78,78,78,78,79,78,78,78,78,78,78,78,78,77,78,77,78,78,78,77,79,78,78,78,78,78,78,78,78,78,78,78,78,77,78,77,78,77,77,77,77,77,76,77,76,76,75,77,76,76,76,76,76,77,78,80,83,83,84,85,85,87,88,90,91,93,94,93,95,95,95,96,96,97,98,99,98,98,98,98,98,97,98,97,98,99,99,98,99,96,96,94,93,92,91,91,89,88,88,87,88,88,90,88,89,87,87,86,87,88,88,88,88,88,88,88,88,88,89,89,90,90,91,92,91,91,92,92,92,92,90,90,90,88,87,82,78,79,79,80,83,83,87,0,0,0,123,128,126,126,126,125,126,127,126,125,125,125,125,124,124,125,124,124,124,124,125,124,123,123,124,124,124,124,125,126,126,127,127,129,128,0,0,0,0,0,0,215,217,218,219,216,217,220,221,224,229,226,226,226,227,226,227,226,226,226,226,226,224,226,226,226,227,228,228,227,228,228,228,227,228,226,226,230,225,0,0,0,0,0,0,0,0,76,75,75,75,76,80,78,81,84,85,86,86,87,87,88,102,107,111,115,117,120,120,121,123,123,125,127,127,127,124,123,0,85,87,87,85,85,85,85,85,85,83,81,81,81,80,80,81,80,80,81,81,80,80,80,80,81,80,80,80,80,80,79,80,80,80,79,80,80,80,80,80,81,81,80,81,81,81,81,81,81,81,81,82,81,81,82,81,81,82,81,82,82,82,81,81,82,82,81,82,82,82,82,81,0,0,0,0,0,0,0
0,0,0,0,0,0,0,0,0,0,0,0,0,0,0,0,0,0,0,0,0,0,81,81,81,83,82,80,81,81,81,80,80,81,79,79,81,80,80,79,77,78,77,77,78,78,78,78,78,78,78,77,77,77,78,77,78,78,78,77,78,78,78,78,78,78,78,78,78,79,78,78,78,77,78,77,78,77,77,77,77,77,77,77,76,76,75,77,76,76,76,75,76,76,77,79,82,82,83,85,86,87,88,90,91,93,94,94,95,95,95,96,96,97,98,98,98,97,98,98,98,98,97,97,98,98,98,98,99,97,97,96,95,94,93,93,92,92,92,90,91,90,92,90,91,88,88,87,88,89,88,88,88,87,87,87,87,87,87,87,89,89,90,90,90,90,90,91,90,91,89,89,89,86,85,81,77,79,78,80,83,83,87,0,0,0,123,128,126,127,126,126,126,127,126,126,125,125,126,125,125,125,124,125,124,125,125,124,124,124,124,124,125,125,126,127,126,127,127,129,0,0,0,0,0,0,0,217,217,218,218,216,217,220,221,224,229,226,226,226,227,226,227,226,226,226,227,226,225,227,227,227,228,229,229,229,229,229,230,229,229,228,228,231,228,229,0,0,0,0,0,0,0,76,76,75,75,76,79,78,81,85,85,86,87,88,88,90,103,107,110,115,116,119,119,120,122,123,125,127,127,127,124,123,0,86,87,87,86,85,85,86,85,85,83,81,81,81,80,80,80,80,80,80,81,80,80,80,79,80,80,80,80,80,80,79,80,80,80,79,80,79,80,80,79,81,81,80,81,80,81,81,81,81,81,81,82,81,81,82,81,82,81,81,82,81,81,81,81,82,82,81,82,82,82,82,81,0,0,0,0,0,0,0
0,0,0,0,0,0,0,0,0,0,0,0,0,0,0,0,0,0,0,0,0,0,81,81,81,83,82,80,81,81,81,80,81,81,79,79,81,80,80,79,77,78,77,77,78,78,78,77,77,78,77,77,77,77,77,77,78,78,78,77,78,78,78,78,78,78,78,78,78,79,78,78,78,77,77,77,77,77,76,77,76,76,76,76,76,76,75,76,75,76,75,75,75,76,77,78,80,81,83,83,85,86,86,89,90,91,93,93,94,94,95,95,95,96,97,97,97,97,97,97,98,98,97,97,99,97,98,98,99,98,98,97,96,95,95,95,94,94,94,93,93,92,94,92,93,90,90,89,90,90,89,89,88,87,86,86,86,86,86,86,88,87,88,89,88,88,89,89,89,90,88,87,86,85,83,79,75,77,77,79,82,82,86,81,85,0,123,128,126,127,126,126,126,126,126,125,125,126,126,125,125,126,124,125,125,125,125,125,124,125,125,125,125,125,126,127,126,127,127,0,0,0,0,0,0,0,217,216,217,217,218,216,217,220,221,224,228,226,226,226,226,226,226,226,226,226,227,226,226,227,227,227,229,229,229,229,230,230,230,230,230,229,229,231,229,231,229,230,231,0,0,0,0,0,75,74,74,74,78,76,79,84,84,86,87,88,0,90,103,107,110,114,116,119,119,120,122,123,125,127,127,127,124,123,0,86,87,87,86,85,86,86,85,85,83,80,80,80,80,80,80,80,79,80,80,80,80,80,79,80,80,80,80,80,80,79,80,80,80,80,80,79,80,80,79,81,81,80,81,80,81,81,81,81,81,81,82,81,81,81,80,82,81,81,81,81,81,81,81,81,81,81,81,82,82,82,80,0,0,0,0,0,0,0
0,0,0,0,0,0,0,0,0,0,0,0,0,0,0,0,0,0,0,0,0,0,81,81,81,83,82,80,81,81,81,80,81,81,79,79,81,80,80,79,77,77,77,77,78,77,77,77,77,77,77,76,77,76,77,76,78,78,78,77,78,78,78,78,78,77,78,78,78,78,78,78,78,77,77,77,77,76,76,77,76,76,76,76,75,75,75,75,75,75,75,75,75,75,76,77,79,79,80,80,81,84,83,87,89,90,91,91,93,93,94,95,95,96,96,97,97,97,97,98,98,98,98,97,99,97,98,98,99,98,98,97,97,96,96,96,96,96,96,95,95,94,95,94,94,92,92,91,91,90,90,89,87,87,86,86,86,85,85,85,87,86,87,87,87,87,87,87,87,88,86,85,84,83,81,77,74,76,76,78,80,80,85,79,84,85,123,127,125,127,126,125,126,126,126,125,125,126,126,125,125,126,124,125,124,124,125,125,124,125,125,125,125,125,126,126,126,127,126,128,0,0,0,0,0,0,217,216,217,216,217,215,216,220,221,225,228,226,226,226,226,226,226,226,226,226,227,227,226,227,227,227,229,229,229,229,230,230,229,229,229,229,229,230,229,231,230,231,231,230,230,231,230,0,0,74,74,74,77,76,78,83,83,85,86,87,0,0,103,108,110,115,117,120,121,121,123,124,125,127,127,127,124,123,0,86,88,88,86,86,86,86,85,85,83,80,80,80,80,80,80,80,79,80,80,80,80,80,79,80,80,80,80,80,80,79,80,80,80,80,80,79,80,80,79,81,81,80,81,80,81,81,81,81,81,81,82,81,81,81,80,82,81,81,82,81,81,81,80,81,81,81,81,82,82,82,80,0,0,0,0,0,0,0
0,0,0,0,0,0,0,0,0,0,0,0,0,0,0,0,0,0,0,0,0,0,81,81,81,83,82,80,81,81,81,81,81,81,79,79,80,80,80,79,77,77,77,77,78,77,77,77,77,77,77,76,76,76,77,76,78,78,78,77,78,78,78,78,78,77,77,77,77,78,77,77,78,76,77,76,76,76,76,76,76,75,75,75,75,75,74,74,75,75,74,74,75,75,75,76,77,77,78,78,78,81,80,84,85,87,89,89,91,91,93,94,94,95,95,96,96,97,97,98,98,98,98,97,99,96,98,97,99,98,98,97,97,97,97,96,96,96,96,95,96,95,96,95,96,93,93,92,92,91,90,89,87,86,85,85,85,84,84,84,85,85,85,85,85,85,84,85,85,86,84,82,80,81,78,77,74,75,75,77,79,80,83,78,84,85,123,127,125,127,126,125,126,126,126,125,125,126,126,125,125,126,125,126,125,125,125,125,125,125,125,125,125,125,126,126,125,126,126,127,0,0,0,0,0,0,217,214,215,214,216,215,216,221,222,226,228,226,226,226,226,226,226,226,226,226,227,227,226,227,227,227,229,229,229,229,229,229,229,229,229,228,228,229,228,230,230,230,230,230,230,230,230,231,0,0,73,74,77,75,78,83,83,85,86,0,0,90,105,108,112,116,118,121,121,121,123,124,125,127,127,127,124,123,0,86,88,88,87,86,86,86,85,85,83,80,80,80,80,80,80,80,79,80,80,80,80,80,79,80,80,80,80,80,80,79,80,80,80,80,80,79,80,80,80,81,81,81,81,81,82,81,81,82,81,81,82,81,81,81,80,82,81,81,82,80,81,81,80,81,81,81,81,82,82,81,80,0,0,0,0,0,0,0
0,0,0,0,0,0,0,0,0,0,0,0,0,0,0,0,0,0,0,0,0,0,81,82,81,83,82,80,81,81,81,81,82,81,79,79,80,80,80,79,77,77,77,77,78,77,77,77,77,77,77,77,76,77,77,76,78,79,78,77,78,78,78,78,78,77,77,77,77,78,77,77,78,76,76,76,76,76,76,76,75,75,74,74,74,74,73,73,74,74,74,73,74,74,74,75,76,76,77,76,77,78,77,81,82,84,86,87,89,90,92,93,94,94,94,96,96,96,97,97,97,98,98,97,99,96,98,98,99,98,98,98,97,97,97,97,97,97,97,96,97,95,97,95,96,94,93,93,92,91,90,89,87,86,84,84,84,83,82,82,83,83,83,83,83,82,81,83,82,82,80,79,77,78,77,76,74,75,75,77,79,80,83,78,84,84,0,126,124,126,126,125,126,126,126,125,126,126,127,126,126,127,125,126,125,125,126,125,125,125,126,125,126,125,126,126,126,127,126,0,0,0,212,211,216,0,217,215,215,214,216,216,217,224,224,226,228,226,226,226,226,226,226,226,226,226,227,227,226,227,228,227,229,229,229,229,229,229,229,228,229,227,228,229,228,229,229,229,229,228,228,228,228,229,0,0,74,75,78,76,79,83,84,86,86,0,0,0,0,109,113,116,118,121,121,121,124,124,126,127,127,127,124,123,0,86,88,88,87,86,86,86,85,85,83,80,80,80,80,80,80,80,79,80,80,80,80,80,79,80,80,80,80,80,80,79,80,80,80,80,80,79,81,80,80,81,81,81,81,81,82,81,81,81,81,81,82,81,81,81,80,82,81,81,82,80,81,81,80,81,82,81,81,82,82,82,80,0,0,0,0,0,0,0
0,0,0,0,0,0,0,0,0,0,0,0,0,0,0,0,0,0,0,0,0,0,81,82,81,83,83,81,81,81,81,81,82,81,79,79,80,80,80,79,78,77,77,77,78,77,77,77,77,77,77,77,77,77,77,76,78,79,78,77,78,79,78,78,78,77,77,77,77,78,77,77,78,76,77,76,76,76,76,76,75,75,74,74,74,74,73,73,73,73,73,73,73,74,74,75,75,75,76,76,76,77,76,78,79,82,84,86,88,89,92,93,93,94,94,95,96,96,97,97,97,98,98,97,99,96,98,98,99,98,98,98,97,97,97,97,97,96,97,95,97,95,96,95,96,94,93,93,92,91,90,89,86,85,84,83,83,82,81,81,82,82,81,80,81,80,79,80,79,79,78,77,76,77,76,76,74,75,75,77,79,80,83,78,84,84,0,0,124,126,126,125,126,126,126,125,125,126,127,125,126,127,125,126,125,125,126,125,125,125,126,126,126,126,127,126,126,127,126,0,0,206,212,212,216,216,218,216,215,214,217,217,220,227,225,227,228,227,227,227,227,227,226,226,226,226,227,227,226,227,228,227,229,229,229,230,230,229,229,228,229,227,228,228,228,229,229,229,229,228,227,227,227,227,0,0,74,75,77,76,79,83,83,85,85,0,0,0,0,109,114,117,120,122,122,122,124,125,126,127,127,127,124,123,0,86,89,88,87,86,86,87,85,85,83,80,80,80,80,80,81,80,80,80,80,80,80,80,79,80,80,80,80,80,80,79,80,80,80,80,80,80,80,80,80,81,81,81,81,81,82,81,81,82,81,81,81,81,81,81,80,82,81,81,81,80,81,81,80,82,82,81,82,82,82,82,81,0,0,0,0,0,0,0
0,0,0,0,0,0,0,0,0,0,0,0,0,0,0,0,0,0,0,0,0,0,81,82,81,83,83,81,81,81,81,81,82,81,79,79,80,80,80,79,78,77,77,77,78,77,77,77,77,77,77,77,77,77,77,76,78,79,78,77,78,78,78,78,77,77,77,77,77,78,77,77,78,76,77,76,76,76,76,77,75,75,75,75,74,75,74,73,74,74,74,74,74,74,74,75,75,75,76,75,75,77,76,78,78,80,82,85,87,88,92,93,93,94,94,96,96,96,97,97,98,98,98,97,99,97,98,98,99,97,98,97,97,97,97,96,96,96,96,95,96,95,96,95,96,93,93,92,91,90,90,88,86,85,83,83,82,82,80,79,80,80,79,79,79,78,78,78,78,77,77,76,75,76,76,76,74,75,75,78,78,80,83,78,84,83,0,0,0,126,126,125,126,126,126,126,125,126,127,126,126,127,125,126,125,125,126,125,126,126,127,126,127,126,127,127,126,128,127,129,0,207,213,213,217,217,219,216,216,215,218,219,223,228,226,227,228,227,227,227,227,227,226,226,226,226,227,227,226,227,228,227,228,228,229,229,230,229,229,228,229,227,228,228,227,229,229,229,229,227,226,227,226,226,0,0,73,74,75,75,78,80,81,0,83,84,0,0,0,110,115,118,121,122,122,122,125,125,126,127,127,127,124,124,124,0,90,90,88,87,87,87,86,86,84,81,81,81,80,80,81,80,80,80,80,80,80,80,79,80,80,80,80,80,80,79,80,80,80,80,80,80,80,80,80,81,81,81,81,80,82,81,81,81,81,81,81,81,81,81,80,81,81,80,81,80,81,81,80,82,82,81,81,82,82,82,81,0,0,0,0,0,0,0
0,0,0,0,0,0,0,0,0,0,0,0,0,0,0,0,0,0,0,0,0,0,81,82,81,82,82,81,81,81,81,81,81,81,79,79,80,80,80,79,78,77,77,77,78,77,77,77,77,77,77,77,77,77,77,76,78,79,78,77,78,78,78,78,77,76,77,77,77,78,77,76,78,76,77,76,77,76,76,77,76,76,75,75,75,75,74,74,74,74,74,74,74,74,74,75,75,75,76,75,75,76,75,77,77,78,80,84,86,87,90,92,93,93,94,96,96,96,97,97,97,98,97,97,99,97,98,98,98,97,97,97,97,96,96,96,96,96,96,95,96,95,96,94,95,93,92,92,90,90,89,87,84,84,82,82,81,81,79,78,79,78,78,78,78,77,77,77,77,77,76,76,75,76,75,75,75,75,75,77,78,80,82,77,84,83,0,0,0,0,126,125,126,126,126,126,126,126,127,126,127,127,126,127,125,126,126,126,126,126,127,127,127,127,128,127,126,128,127,129,0,207,213,0,217,0,219,217,217,215,218,221,226,228,227,228,227,227,227,227,227,227,226,226,226,226,227,227,225,227,227,227,228,228,229,229,229,229,229,228,228,227,228,228,227,228,228,228,228,227,226,0,0,225,0,0,73,74,75,74,77,79,0,0,81,83,0,0,0,110,0,118,121,122,122,123,125,125,126,127,127,127,124,124,124,122,0,0,94,88,88,88,86,86,84,82,82,81,80,80,81,80,80,80,80,80,80,80,79,80,80,80,80,80,80,79,80,80,80,80,80,80,80,80,80,81,81,81,81,80,81,81,81,81,81,81,81,81,81,81,80,81,81,80,81,81,81,81,80,82,82,81,81,82,82,82,81,0,0,0,0,0,0,0
0,0,0,0,0,0,0,0,0,0,0,0,0,0,0,0,0,0,0,0,0,0,81,82,81,82,82,81,80,81,81,81,81,81,79,79,80,80,80,79,78,77,77,77,78,77,77,77,77,78,77,77,77,77,77,76,78,79,78,77,78,78,78,78,77,76,77,77,77,78,77,76,78,76,76,76,76,76,76,77,76,75,75,75,75,75,74,74,74,74,74,74,75,75,74,75,75,75,75,75,75,76,75,76,76,77,78,82,84,86,89,91,92,93,94,95,95,96,97,97,98,98,97,98,99,97,98,98,98,97,97,97,96,96,96,96,95,96,95,94,95,94,95,94,94,92,92,91,89,88,88,86,83,83,81,80,80,80,78,77,78,78,77,77,77,77,76,76,76,76,76,75,74,75,75,75,75,75,75,77,78,80,82,77,84,83,80,0,0,0,126,125,126,126,126,126,126,126,127,126,127,128,126,127,126,126,127,126,126,127,127,128,128,127,128,127,127,129,127,130,0,205,212,0,218,0,220,217,217,216,219,223,227,228,228,228,227,227,227,227,227,226,226,226,226,226,226,226,225,227,227,228,228,228,229,229,229,229,229,228,229,227,228,228,227,228,229,229,0,0,0,0,0,0,0,74,73,74,75,75,77,78,0,0,80,0,0,0,0,111,0,119,121,122,122,123,125,125,126,126,127,127,125,124,124,123,0,0,0,0,89,89,87,87,85,83,82,82,81,81,81,80,81,80,80,80,80,80,79,80,80,80,80,81,80,80,80,80,80,80,80,80,80,80,80,81,81,81,81,80,81,81,81,81,80,81,81,81,81,81,81,81,81,80,81,81,81,81,80,82,82,81,81,82,82,82,81,0,0,0,0,0,0,0
0,0,0,0,0,0,0,0,0,0,0,0,0,0,0,0,0,0,0,0,0,0,81,82,81,82,83,81,80,81,81,81,82,81,79,79,80,80,80,79,78,77,77,77,78,77,77,77,77,78,77,77,77,77,78,77,78,79,78,77,78,78,78,78,77,76,77,77,78,78,77,76,78,76,76,76,76,75,75,76,75,75,75,75,75,75,74,74,74,74,74,74,75,75,74,75,75,75,75,75,75,76,75,75,76,76,78,80,82,85,87,90,91,92,93,95,95,96,97,97,97,98,97,98,99,97,98,98,98,97,97,96,96,96,95,95,95,95,94,93,93,92,93,92,92,91,90,89,87,87,86,85,82,82,80,80,79,79,78,77,77,77,77,77,77,76,76,76,76,76,76,75,74,75,75,75,75,75,75,78,78,80,82,77,84,83,80,79,0,0,126,125,126,126,126,126,126,126,127,126,127,128,126,127,126,126,127,126,127,127,128,128,128,128,129,128,127,130,128,131,0,204,209,0,0,0,220,217,217,215,219,223,226,228,228,227,227,227,227,227,227,226,226,226,226,226,226,226,225,227,227,228,228,228,229,229,229,228,229,228,229,227,228,228,227,229,229,0,0,0,0,0,0,0,73,74,74,75,75,75,77,78,0,0,0,0,0,0,0,111,0,119,121,122,122,123,125,125,125,126,126,126,125,124,124,123,124,122,0,0,91,90,87,87,86,83,83,82,82,82,81,80,81,81,80,80,80,80,79,80,80,80,80,81,80,80,80,80,80,80,80,80,80,80,80,81,81,81,81,80,81,81,81,81,80,81,81,81,81,81,81,81,81,80,82,81,81,81,80,82,82,82,81,82,82,82,81,0,0,0,0,0,0,0
0,0,0,0,0,0,0,0,0,0,0,0,0,0,0,0,0,0,0,0,0,0,81,82,81,82,83,81,80,81,81,81,82,81,79,79,81,80,80,79,78,77,77,77,78,78,77,77,77,78,78,77,77,77,78,76,78,79,78,77,78,78,78,78,77,76,77,77,78,78,77,77,78,76,76,76,76,75,75,76,75,75,75,74,75,75,74,74,74,74,74,74,75,75,74,75,75,75,75,75,75,76,75,75,75,76,78,79,80,84,86,90,91,91,92,94,94,95,96,97,97,97,97,98,99,97,98,98,98,98,97,96,96,95,95,94,94,94,93,91,92,91,91,91,90,89,89,88,85,85,84,84,81,81,79,79,79,79,77,77,77,77,76,77,77,76,76,76,76,76,76,75,74,75,75,75,75,75,75,77,78,79,82,77,84,83,79,79,77,0,0,125,126,126,126,126,126,126,128,126,127,128,126,127,126,126,127,126,126,127,128,128,128,128,129,128,127,130,128,131,0,202,0,191,0,182,0,216,0,213,219,223,227,228,228,227,227,226,227,227,227,226,226,226,226,226,226,226,224,226,225,227,227,227,228,228,228,228,229,228,229,227,228,228,227,229,229,0,0,0,0,0,0,74,73,75,74,75,75,75,76,77,0,0,0,0,0,0,0,0,0,0,121,122,122,123,125,125,125,126,126,126,125,124,124,123,124,122,121,0,0,91,88,88,86,84,84,83,82,82,82,81,81,81,80,80,80,80,80,80,80,80,80,80,80,80,80,80,80,80,80,80,80,80,80,81,81,81,81,80,82,81,81,81,81,81,81,81,81,81,81,81,81,80,82,81,81,81,81,82,82,82,81,82,82,82,81,0,0,0,0,0,0,0
0,0,0,0,0,0,0,0,0,0,0,0,0,0,0,0,0,0,0,0,0,0,81,82,81,82,82,82,80,81,81,81,82,81,80,79,81,80,80,79,79,78,77,78,79,78,78,77,78,78,78,77,77,77,78,77,78,79,78,77,78,78,78,77,76,76,77,77,78,77,77,77,78,76,76,76,76,76,75,77,76,75,75,75,75,75,74,74,74,74,74,74,75,75,74,75,75,75,75,75,75,75,75,75,75,76,78,79,79,83,85,89,90,91,91,93,93,94,95,96,96,97,97,97,99,97,98,98,98,98,97,96,95,95,94,94,93,93,92,90,90,90,90,89,88,87,86,85,83,82,81,82,79,80,78,78,79,79,77,77,77,77,76,76,76,76,75,76,76,76,75,75,74,75,75,75,75,75,75,77,78,79,81,77,83,83,80,79,78,79,0,0,126,126,126,126,126,127,128,126,127,128,126,128,126,126,127,126,126,127,128,128,128,127,129,127,127,129,127,0,0,0,0,186,0,182,0,215,213,211,219,224,227,228,228,227,226,226,227,227,227,226,226,226,226,226,226,226,224,225,224,225,225,226,227,228,227,228,229,228,229,227,228,228,227,229,0,0,0,0,0,0,0,74,74,76,75,75,75,75,76,77,0,0,0,0,0,0,0,0,212,0,0,122,122,123,124,124,125,125,126,126,124,124,124,124,125,123,122,123,0,0,89,89,87,85,85,84,83,83,82,81,82,81,80,80,80,80,80,80,80,80,80,80,80,80,80,79,80,80,80,80,80,80,81,81,81,81,81,81,82,81,81,81,81,81,81,81,81,81,81,81,81,80,82,81,81,81,81,82,82,81,81,82,82,82,81,0,0,0,0,0,0,0
0,0,0,0,0,0,0,0,0,0,0,0,0,0,0,0,0,0,0,0,0,0,81,82,81,82,82,82,80,81,82,82,82,81,80,79,81,81,80,79,79,78,77,78,79,78,78,77,78,78,78,77,77,77,78,77,78,79,77,77,77,78,78,77,76,76,76,77,78,77,77,77,78,76,77,77,76,76,76,77,76,76,75,75,75,75,74,73,74,74,74,74,74,74,74,74,75,75,75,75,75,75,75,75,75,75,78,78,79,83,84,87,89,90,91,92,93,94,95,96,96,97,96,97,98,97,98,98,98,98,97,97,95,95,94,93,93,93,91,89,88,88,88,87,84,84,83,83,80,80,79,80,78,79,77,78,78,79,77,77,77,77,76,76,76,76,75,75,76,75,75,75,74,75,75,75,75,75,75,77,78,79,81,77,83,83,80,80,78,80,0,0,126,126,126,126,126,127,128,126,127,128,126,128,126,126,127,126,126,127,128,128,128,127,129,127,127,129,126,0,0,0,0,186,0,182,0,214,208,211,219,225,227,228,227,227,226,226,227,226,226,226,226,226,226,225,225,225,223,224,224,225,225,226,227,228,227,228,229,228,229,228,229,228,227,229,0,0,0,72,74,75,75,75,74,76,75,76,75,75,76,76,0,0,0,0,0,0,0,0,211,0,0,122,122,124,124,124,124,125,126,126,124,124,125,124,125,123,123,123,123,0,0,0,0,86,85,84,84,83,82,81,82,81,80,80,80,80,80,80,80,80,80,80,80,80,80,79,80,80,80,81,80,81,81,81,81,81,81,81,82,81,81,81,81,81,81,81,81,81,81,81,81,80,81,81,81,81,81,82,81,81,81,82,82,82,81,0,0,0,0,0,0,0
0,0,0,0,0,0,0,0,0,0,0,0,0,0,0,0,0,0,0,0,0,0,81,82,82,82,82,82,80,81,81,82,82,81,80,79,81,81,80,79,79,78,77,78,79,78,78,77,77,78,78,77,77,77,78,77,78,79,77,77,78,78,78,78,76,76,77,77,78,77,77,77,79,77,77,77,76,76,76,77,76,76,75,75,75,76,75,74,74,74,74,74,75,75,74,74,75,75,75,75,75,75,75,75,75,76,78,78,79,83,84,87,89,90,91,92,92,94,95,95,96,96,96,97,98,97,97,98,98,98,97,97,95,95,94,93,93,92,91,88,86,86,84,84,81,82,81,81,79,79,78,79,77,78,77,78,78,78,77,77,77,77,76,76,76,76,75,75,76,75,75,74,74,75,75,75,75,75,75,77,78,79,81,77,83,83,81,80,78,80,79,0,125,126,126,126,126,127,128,127,127,128,126,128,126,126,127,126,127,127,128,127,128,127,129,127,127,129,126,0,0,0,0,187,0,182,0,213,206,212,219,226,227,228,227,227,226,226,227,227,227,226,226,226,226,225,225,225,223,224,224,225,225,227,228,228,227,228,230,228,230,228,229,228,228,230,0,0,0,72,75,75,76,75,74,76,75,76,75,75,76,76,0,0,0,0,0,0,0,0,211,0,0,0,122,125,125,124,125,125,126,126,125,124,125,124,125,124,123,124,123,124,124,0,0,87,86,85,84,83,82,81,82,81,80,80,80,80,80,80,80,80,80,80,80,80,80,79,80,81,80,81,81,81,81,81,81,81,81,81,82,81,81,81,81,81,81,81,81,81,81,81,81,80,81,81,81,81,81,82,81,81,81,82,82,82,82,0,0,0,0,0,0,0
0,0,0,0,0,0,0,0,0,0,0,0,0,0,0,0,0,0,0,0,0,0,82,82,82,82,82,81,80,81,81,82,82,81,80,79,80,81,80,79,79,78,77,78,79,78,78,77,78,78,78,78,77,77,78,77,78,79,78,77,78,78,78,78,76,77,77,77,78,77,77,77,79,77,77,77,76,76,76,77,76,76,76,75,75,76,75,74,74,74,74,75,75,75,74,75,75,75,75,75,74,75,75,75,75,75,77,78,78,82,83,85,87,89,90,92,92,93,94,95,96,96,96,97,98,97,97,98,98,98,97,96,95,95,94,93,92,91,90,86,84,84,82,82,80,81,79,80,78,78,78,78,77,78,77,78,78,78,77,77,77,77,76,76,76,76,75,75,76,75,75,74,74,75,75,75,75,75,75,77,78,79,81,77,83,83,81,81,79,80,79,0,125,126,126,126,126,127,128,127,127,128,126,128,126,126,127,126,127,127,128,127,128,127,128,127,127,129,126,0,0,201,0,189,0,182,0,212,201,212,219,226,227,228,227,227,227,227,227,227,227,226,226,226,226,225,225,225,223,224,224,225,225,227,228,228,227,228,230,228,230,229,229,228,228,0,77,0,0,72,75,75,76,75,74,76,75,76,75,76,76,0,0,0,0,0,0,0,0,211,212,0,0,0,123,125,125,125,125,126,126,126,125,125,125,125,126,124,124,125,124,125,125,125,124,0,0,0,84,83,83,81,82,81,80,80,80,80,80,80,80,80,80,80,80,80,80,80,80,81,80,81,81,81,81,81,81,81,81,81,82,81,81,81,81,81,81,81,81,81,81,81,81,80,81,80,81,81,81,82,81,81,81,82,82,82,82,0,0,0,0,0,0,0
0,0,0,0,0,0,0,0,0,0,0,0,0,0,0,0,0,0,0,0,0,0,82,82,82,82,82,81,80,81,81,82,82,82,80,80,81,81,80,80,79,78,78,78,79,78,78,78,78,79,78,78,78,78,78,77,78,79,78,77,78,78,78,78,77,77,77,77,78,77,77,78,78,77,77,77,76,76,76,77,76,77,76,75,76,76,75,74,74,74,75,75,75,75,74,75,75,75,75,75,74,75,75,75,75,75,77,77,77,81,81,84,85,88,89,91,91,93,94,94,95,96,96,97,98,97,97,98,98,98,97,96,95,94,93,92,92,90,89,85,82,83,80,80,79,80,79,79,78,78,77,78,77,78,77,78,78,78,77,76,76,76,76,76,76,76,75,75,75,75,75,74,74,75,75,75,75,75,75,77,77,79,80,77,83,83,81,81,79,80,80,0,125,126,126,126,126,127,128,127,127,128,126,128,126,126,127,126,127,127,128,127,128,127,128,127,127,128,126,0,0,201,202,191,0,182,0,213,202,212,220,226,227,228,227,227,227,227,227,227,227,226,226,226,226,225,225,225,223,224,224,225,226,227,228,228,227,228,230,228,231,229,229,228,228,0,76,76,73,72,75,75,76,75,74,76,75,76,75,76,77,77,0,0,0,0,0,0,0,0,212,0,0,0,123,126,125,125,125,126,126,126,125,125,125,125,126,125,125,126,125,126,125,125,124,125,0,0,0,83,83,81,82,82,80,80,80,80,80,80,80,80,80,80,80,80,80,80,80,81,80,81,81,81,81,81,81,81,81,81,82,81,81,81,81,81,81,81,81,81,81,81,81,80,81,80,81,81,81,82,81,81,81,82,82,82,82,0,0,0,0,0,0,0
0,0,0,0,0,0,0,0,0,0,0,0,0,0,0,0,0,0,0,0,0,0,82,82,82,82,82,81,80,81,81,82,82,81,80,80,81,81,80,80,80,79,78,79,80,78,78,78,79,79,78,78,78,78,78,77,79,79,78,77,78,78,78,78,77,77,77,77,78,77,77,78,78,77,77,77,77,76,76,77,76,77,76,75,76,76,75,74,75,74,75,75,75,76,75,75,75,75,75,75,74,75,75,75,75,75,76,76,76,80,80,82,84,87,89,90,91,92,93,94,95,95,96,97,98,97,98,98,98,98,97,96,94,94,93,92,92,90,88,84,82,82,79,79,78,79,78,78,77,77,77,78,77,78,77,77,78,78,77,76,76,76,75,76,76,75,74,75,75,75,75,74,74,75,75,75,75,75,75,77,78,79,80,77,83,83,81,81,79,80,80,79,125,126,126,126,126,127,128,127,127,128,126,128,126,126,127,126,127,127,128,127,128,127,128,127,127,128,0,0,0,201,202,192,0,182,0,216,0,214,221,227,227,228,227,227,227,227,227,227,227,227,227,226,225,225,225,225,223,224,224,225,227,227,228,227,226,227,230,229,231,230,230,228,0,0,75,75,73,73,75,75,76,75,75,77,76,76,75,76,77,77,0,0,0,0,0,0,0,0,212,0,0,0,0,126,125,126,125,126,126,126,126,125,126,126,127,125,126,127,125,126,126,126,125,126,125,126,0,84,83,81,83,82,80,80,80,80,80,80,80,80,80,80,80,80,80,79,80,80,80,80,80,80,81,81,82,81,82,81,82,81,81,81,81,81,81,81,81,81,81,81,81,80,81,80,81,81,81,81,81,81,82,82,82,82,82,0,0,0,0,0,0,0
0,0,0,0,0,0,0,0,0,0,0,0,0,0,0,0,0,0,0,0,0,0,82,82,82,82,82,81,80,81,81,82,81,81,80,80,81,81,80,80,80,79,78,79,80,79,79,79,79,80,79,79,78,78,78,77,79,79,78,78,78,78,78,77,76,77,77,77,78,77,77,77,78,77,77,77,76,76,76,77,76,77,76,76,77,76,75,75,75,75,75,75,76,76,75,75,75,75,75,75,75,75,75,75,75,75,76,76,76,79,79,80,82,86,88,89,90,91,93,93,94,95,96,97,98,97,98,98,98,98,97,97,94,94,93,92,92,89,87,84,81,82,78,79,78,78,77,78,77,77,77,77,77,78,77,78,78,78,77,76,76,76,75,75,75,75,74,74,75,75,75,74,74,75,75,75,75,75,75,78,77,78,80,76,83,82,80,80,78,80,80,79,0,126,126,126,126,127,128,127,128,128,127,128,126,127,127,126,127,127,128,128,128,127,129,127,127,0,0,197,200,201,203,194,0,183,221,218,223,217,222,228,227,228,227,227,227,227,227,227,227,227,227,226,225,225,225,225,222,224,224,225,227,227,228,227,226,227,230,229,231,230,230,229,0,73,75,75,74,73,75,75,76,75,74,76,75,76,75,76,76,76,76,0,0,0,0,0,0,0,212,0,0,0,0,126,125,126,125,126,126,126,126,126,126,126,127,126,127,127,126,127,126,127,126,126,126,126,0,84,84,81,83,82,80,80,80,80,80,80,80,80,80,80,80,80,80,79,80,80,79,80,80,80,81,81,82,81,82,81,82,81,81,81,81,81,81,81,81,81,81,81,81,80,81,81,81,80,81,81,81,81,82,82,82,82,82,0,0,0,0,0,0,0
0,0,0,0,0,0,0,0,0,0,0,0,0,0,0,0,0,0,0,0,0,0,82,82,82,81,82,81,80,81,81,82,81,81,80,80,81,81,80,80,80,79,78,79,80,79,79,79,79,80,78,79,78,78,78,77,79,79,78,78,78,78,78,77,76,77,77,77,78,77,77,77,78,77,77,77,76,76,76,77,76,77,76,76,77,76,75,75,75,75,75,76,76,76,75,75,75,75,75,75,75,75,75,75,75,75,76,76,76,79,78,79,82,85,87,89,89,91,92,93,94,94,95,96,97,98,98,98,98,98,98,97,95,94,93,92,91,88,86,83,80,81,78,78,77,78,77,78,77,77,77,77,77,78,77,78,78,78,77,76,76,76,75,75,75,75,74,74,75,74,75,74,74,75,75,75,75,75,75,77,77,78,80,76,82,82,79,80,78,80,80,79,0,126,126,126,126,127,128,127,128,128,127,128,126,127,127,127,127,127,128,128,128,128,129,128,127,0,0,197,200,202,204,197,0,0,221,219,227,221,223,228,227,228,227,227,227,227,227,227,227,227,227,226,225,225,224,224,222,224,224,225,227,228,228,227,226,227,230,229,232,231,231,229,70,73,74,74,74,73,75,75,75,75,74,76,75,75,74,75,75,75,75,0,0,0,0,0,0,0,213,0,0,0,0,0,125,126,125,126,126,126,126,126,126,127,127,126,127,128,126,127,127,127,126,127,126,127,127,0,84,82,83,82,80,80,80,80,80,80,80,80,80,80,80,80,80,79,80,80,79,80,80,80,81,81,82,81,82,81,82,81,81,81,81,81,81,81,81,81,81,81,82,80,81,81,81,80,81,81,81,81,82,82,82,83,83,0,0,0,0,0,0,0
0,0,0,0,0,0,0,0,0,0,0,0,0,0,0,0,0,0,0,0,0,0,81,82,82,81,81,81,80,82,81,82,81,81,81,80,81,81,80,80,80,80,78,80,80,79,79,79,79,80,78,79,78,78,78,77,78,79,78,78,78,78,78,77,76,77,77,77,78,77,77,78,78,77,77,77,76,76,76,77,77,77,76,76,77,77,76,75,76,75,76,76,76,76,75,76,75,75,75,75,75,75,75,75,76,75,77,76,77,78,78,79,81,84,86,88,89,90,92,92,94,94,95,96,97,98,98,98,98,98,98,97,94,93,92,91,90,87,84,82,79,80,77,78,77,78,76,77,77,77,77,77,77,78,77,78,77,78,77,76,76,76,75,75,75,75,74,74,75,74,75,74,74,75,75,75,75,75,75,77,77,78,79,76,81,82,78,79,78,80,79,79,0,126,126,126,126,127,128,127,128,128,127,128,126,127,127,127,127,128,128,128,128,128,129,128,128,0,0,198,201,202,207,200,0,0,221,220,227,223,224,228,227,227,227,227,227,227,227,226,227,227,227,225,225,225,224,224,222,224,223,226,227,228,228,227,226,227,230,229,232,232,232,0,69,73,74,74,74,73,75,75,75,75,73,75,74,74,73,74,74,74,74,0,0,0,0,0,0,0,212,0,0,0,0,0,125,126,125,126,126,126,126,126,127,127,128,126,128,128,126,128,127,127,126,127,126,127,126,0,84,82,83,82,80,80,80,81,80,80,80,80,80,80,80,80,80,79,80,80,79,80,80,80,80,80,82,80,82,81,81,81,81,81,81,81,81,81,81,81,81,81,82,80,81,81,81,81,81,81,81,81,82,82,82,82,82,0,0,0,0,0,0,0
0,0,0,0,0,0,0,0,0,0,0,0,0,0,0,0,0,0,0,0,0,0,81,82,82,81,81,81,80,82,81,82,81,81,81,80,81,82,80,80,80,80,79,80,80,79,79,79,80,80,78,79,78,79,79,77,78,79,78,78,78,78,78,77,76,77,77,77,78,77,77,78,78,77,77,77,76,76,76,77,77,77,76,76,77,76,75,75,76,75,76,76,76,76,75,76,75,75,75,75,75,75,75,75,76,75,76,75,76,78,78,79,81,84,85,87,88,90,91,92,93,94,95,96,97,98,98,98,98,98,98,97,94,93,92,91,90,86,83,81,79,80,77,77,77,78,76,77,77,77,77,77,77,78,77,78,77,78,76,76,76,76,75,75,75,75,74,74,75,74,74,74,73,75,75,75,75,75,75,77,77,77,78,75,80,81,78,79,78,79,79,79,0,126,126,126,126,127,128,127,128,128,127,128,126,127,127,127,127,128,128,128,128,127,129,127,0,0,0,197,0,202,210,201,219,219,222,221,227,224,225,228,227,227,227,226,226,226,226,226,226,226,226,225,224,224,223,223,222,223,223,226,227,228,227,226,225,227,230,229,240,232,0,66,69,73,73,73,74,73,75,75,76,75,74,75,74,73,73,73,73,73,73,0,0,0,0,0,0,0,0,0,0,121,0,0,124,126,125,126,126,126,126,126,127,127,128,126,128,128,126,128,127,127,126,127,126,126,126,0,84,82,83,82,80,80,80,80,80,80,80,80,80,80,80,80,80,79,80,80,79,80,80,80,80,80,82,81,82,81,82,81,81,81,81,81,81,81,81,81,81,81,81,80,81,81,81,80,81,81,81,81,81,82,81,82,82,0,0,0,0,0,0,0
0,0,0,0,0,0,0,0,0,0,0,0,0,0,0,0,0,0,0,0,0,0,81,82,82,81,81,81,80,82,81,82,81,81,81,80,81,82,80,80,80,80,79,80,80,79,79,80,80,80,78,79,78,79,79,78,78,79,78,78,78,78,78,77,77,77,77,78,78,77,78,79,78,77,77,77,76,76,76,76,76,77,76,76,76,76,75,75,75,75,75,76,76,76,75,75,75,75,75,75,75,75,75,75,75,75,75,75,76,77,77,78,80,82,84,85,87,89,90,91,92,93,94,95,97,98,98,98,98,98,98,96,94,93,91,90,89,85,83,81,79,80,77,77,77,78,76,78,77,77,77,77,77,78,77,78,77,78,76,76,75,76,75,75,75,74,74,73,75,74,74,73,73,74,75,75,75,75,75,77,76,76,77,74,79,80,77,78,77,79,78,78,0,125,126,125,126,126,127,127,127,128,126,128,126,126,127,126,126,127,128,127,128,127,129,0,0,0,0,198,0,202,214,0,219,220,222,221,227,225,225,228,227,227,227,226,226,226,226,226,226,226,226,225,224,224,223,223,222,223,223,227,227,228,227,226,225,227,230,229,240,240,0,66,69,73,73,73,74,73,76,76,76,75,74,75,74,73,73,73,73,73,0,0,0,0,0,0,0,0,0,0,0,121,122,0,124,126,125,126,126,126,126,126,127,127,127,126,128,128,126,128,127,127,126,127,126,126,126,0,84,82,83,82,80,80,80,80,80,80,80,80,80,80,80,79,80,79,80,80,79,80,80,80,80,80,82,81,82,81,82,81,81,81,81,81,81,81,81,81,81,81,81,80,81,81,81,80,81,81,80,81,81,81,81,82,82,0,0,0,0,0,0,0
0,0,0,0,0,0,0,0,0,0,0,0,0,0,0,0,0,0,0,0,0,0,81,82,82,81,81,81,80,82,81,81,81,81,81,80,81,82,80,80,80,80,79,80,80,80,79,80,80,80,78,79,78,79,79,78,78,79,78,78,78,78,78,77,77,78,77,78,78,77,78,79,78,78,78,77,76,77,77,76,76,77,76,76,76,76,75,75,75,75,75,75,75,75,75,76,75,75,75,74,75,75,75,75,75,75,75,74,76,76,77,77,79,81,83,84,87,88,89,90,92,92,94,95,96,98,98,99,99,98,98,96,93,92,90,89,89,84,82,80,78,79,77,77,77,78,76,78,78,78,78,77,78,78,78,78,77,78,77,76,75,76,75,75,74,74,74,73,74,74,74,73,73,74,74,74,75,75,75,76,76,76,76,74,78,79,76,77,77,77,77,76,0,125,125,125,125,125,127,126,127,127,126,127,126,126,126,126,126,127,127,126,127,126,0,0,0,0,0,198,0,202,214,0,219,219,221,221,227,226,226,228,226,227,226,226,226,226,226,226,226,227,226,225,224,223,223,223,222,223,225,227,227,228,227,226,225,227,230,229,232,232,0,66,70,73,73,73,74,73,76,76,76,75,74,75,74,73,73,74,0,0,0,0,0,0,0,0,0,0,209,0,0,0,0,0,124,126,126,126,126,126,127,126,127,127,128,127,128,128,127,128,127,127,127,127,127,126,127,0,84,82,83,82,80,80,80,80,80,80,80,80,80,79,80,79,80,79,80,79,79,80,80,80,80,80,82,81,82,81,82,81,81,81,81,81,81,81,81,81,81,81,81,80,81,80,81,80,82,81,80,81,81,81,82,82,82,0,0,0,0,0,0,0
0,0,0,0,0,0,0,0,0,0,0,0,0,0,0,0,0,0,0,0,0,0,81,82,82,81,81,81,80,82,80,81,81,81,81,80,81,82,80,80,80,80,79,80,79,79,79,80,80,80,78,79,78,79,79,78,78,79,78,78,78,78,78,77,77,78,78,78,78,78,78,79,78,78,78,77,77,78,77,77,77,77,76,76,77,76,75,75,75,75,75,76,75,75,75,76,75,75,75,74,75,75,75,75,75,75,75,74,76,76,77,77,79,81,82,84,86,88,89,90,91,92,93,95,96,98,98,99,99,99,98,97,94,91,90,89,88,84,81,79,78,79,77,77,77,78,76,78,78,78,78,77,78,78,78,78,77,78,77,76,76,76,75,75,74,74,73,73,74,73,74,73,73,74,74,74,75,75,75,76,76,75,76,73,77,78,76,77,77,77,76,0,0,125,125,125,125,125,127,126,127,127,126,127,126,126,126,126,126,126,127,126,127,0,0,0,0,196,0,198,199,201,210,216,218,219,221,222,227,226,226,227,226,227,227,226,226,226,226,226,226,227,226,225,224,223,223,224,222,224,226,227,227,228,227,226,225,227,229,228,231,231,0,64,69,72,72,72,75,73,76,76,76,75,73,74,73,73,73,73,0,0,0,0,0,0,0,0,0,0,208,0,0,0,0,0,0,126,126,126,126,126,127,127,127,127,128,127,128,128,127,128,127,127,127,127,127,127,126,0,83,82,83,82,80,80,80,80,80,80,80,80,80,79,80,79,80,79,80,79,79,80,80,80,80,81,82,81,82,81,82,81,81,81,81,81,81,81,81,81,81,81,81,80,81,80,81,80,82,81,80,81,81,81,82,82,82,0,0,0,0,0,0,0
0,0,0,0,0,0,0,0,0,0,0,0,0,0,0,0,0,0,0,0,0,0,81,82,82,81,81,81,80,82,80,81,81,81,81,81,81,82,80,80,80,80,79,80,79,79,79,80,80,80,78,79,78,79,79,77,78,79,78,78,78,78,78,77,77,78,78,78,78,78,78,79,78,78,78,78,77,78,77,77,76,77,76,76,76,76,75,75,75,75,75,75,75,75,75,76,75,75,75,74,74,74,75,75,75,75,75,74,76,76,77,78,79,81,82,84,86,87,89,90,91,91,93,94,96,98,99,99,99,99,99,97,94,92,91,90,89,84,82,80,78,80,77,77,78,79,77,78,78,78,78,78,78,78,78,78,77,78,77,76,75,76,75,75,74,74,73,73,74,73,73,73,72,74,74,74,75,74,75,76,75,75,75,73,76,77,76,76,76,76,76,75,0,125,125,124,125,125,126,126,126,127,126,126,126,125,126,126,125,126,127,125,0,0,0,0,0,198,0,198,199,201,208,215,218,218,220,222,227,226,227,227,226,227,226,226,226,226,226,226,226,226,226,225,224,223,223,223,222,224,227,227,227,228,227,226,225,227,229,227,230,230,229,0,69,72,72,72,74,73,76,75,76,75,73,74,73,72,0,0,0,0,0,0,0,0,0,0,0,0,208,0,0,0,0,0,0,0,0,127,126,127,127,127,127,128,128,127,128,128,127,128,127,127,127,127,127,127,126,0,83,82,82,81,80,80,80,80,80,80,80,80,80,79,80,79,80,79,80,79,79,80,80,80,80,81,82,81,82,81,82,81,81,81,81,81,81,81,81,81,81,81,81,80,81,80,81,80,82,81,81,81,81,82,82,82,82,0,0,0,0,0,0,0
0,0,0,0,0,0,0,0,0,0,0,0,0,0,0,0,0,0,0,0,0,0,81,82,82,81,81,81,80,82,80,81,81,81,81,81,81,82,80,80,80,80,79,80,79,79,79,80,80,80,78,79,78,79,79,77,78,78,78,78,78,78,78,77,77,78,78,78,78,78,78,79,78,78,78,78,77,78,77,77,77,77,76,76,77,76,76,76,75,75,75,75,75,75,75,75,75,74,75,74,75,75,75,75,75,76,75,74,77,77,78,79,81,83,84,85,87,88,89,90,91,92,93,94,96,98,99,99,99,99,99,97,94,93,92,91,90,85,83,81,79,81,78,78,78,80,77,79,78,78,78,78,79,78,78,78,77,78,77,76,75,76,75,74,74,74,73,73,74,73,73,73,72,73,74,74,74,74,75,76,75,75,75,73,75,77,76,76,76,75,75,0,0,124,125,124,125,125,126,126,126,126,126,126,125,125,125,125,125,126,126,0,0,0,0,199,0,199,0,199,200,201,209,214,217,218,221,222,226,226,227,226,226,227,226,226,226,226,226,226,226,226,226,225,224,223,223,224,223,224,227,227,227,228,227,226,225,227,228,227,229,229,228,0,68,72,72,72,74,73,76,76,76,75,73,73,72,0,0,0,0,0,0,0,0,0,0,0,0,210,210,0,0,0,0,0,0,0,127,127,126,127,127,127,127,128,128,127,128,128,127,128,127,127,127,127,127,127,126,0,83,81,82,81,80,80,80,80,80,80,80,80,80,79,80,80,80,79,80,79,80,80,80,80,80,81,82,81,82,81,82,81,81,81,81,81,81,81,81,81,81,81,81,80,81,80,81,80,82,81,81,81,82,82,82,82,82,0,0,0,0,0,0,0
0,0,0,0,0,0,0,0,0,0,0,0,0,0,0,0,0,0,0,0,0,0,81,81,82,81,81,81,80,82,80,81,81,81,81,81,80,82,80,80,80,80,79,79,79,79,79,80,80,80,78,79,77,79,78,77,78,78,78,78,78,78,78,77,77,77,78,78,78,78,77,78,78,78,78,77,77,77,77,77,77,77,76,77,77,77,76,76,76,75,76,75,75,76,75,76,75,75,75,75,75,75,75,76,76,77,75,75,77,77,79,81,83,85,86,87,88,89,90,90,91,92,93,95,96,98,99,99,99,99,99,98,95,93,92,91,91,86,84,83,81,83,79,79,79,81,78,80,79,79,79,78,79,78,79,78,77,78,77,76,75,75,75,74,74,74,73,72,74,73,73,73,72,73,74,74,74,74,74,76,75,74,75,73,75,76,76,76,76,74,74,0,0,124,125,124,125,125,126,126,126,126,125,125,125,124,124,125,124,125,0,0,0,203,203,203,204,201,205,200,201,203,210,214,217,218,221,222,226,227,227,226,226,226,226,226,226,226,226,226,226,225,226,224,224,223,223,223,223,225,227,226,227,228,227,225,224,226,228,226,228,229,227,228,0,0,71,71,74,73,76,76,75,74,73,73,0,0,0,0,0,0,0,0,0,0,0,0,0,211,211,0,0,0,0,0,0,0,0,127,127,127,127,127,127,127,127,126,128,128,127,128,127,127,127,127,127,127,126,0,83,82,83,81,80,80,80,80,80,80,80,80,80,79,80,80,80,79,80,79,80,80,80,80,81,81,82,81,82,81,82,81,81,81,81,81,81,81,81,81,81,81,81,80,81,80,81,80,81,81,81,81,82,82,82,82,81,0,0,0,0,0,0,0
0,0,0,0,0,0,0,0,0,0,0,0,0,0,0,0,0,0,0,0,0,0,81,81,82,81,81,81,80,82,80,81,80,81,81,81,80,82,80,79,80,80,78,79,79,79,79,79,80,79,78,79,77,78,78,77,78,78,78,78,78,78,78,77,77,77,78,78,78,78,77,78,78,77,77,77,77,77,77,77,77,77,76,77,77,76,76,76,76,76,76,75,75,76,75,76,75,75,75,75,75,75,76,76,76,77,76,75,77,77,80,82,84,86,87,87,89,89,90,90,91,92,94,94,96,98,99,99,99,99,98,97,95,93,93,93,92,86,85,84,82,83,80,80,81,82,79,81,79,79,79,78,80,79,79,79,77,78,76,76,75,75,74,74,74,74,73,72,74,72,73,72,72,73,74,74,74,74,74,75,74,74,74,72,74,76,76,75,75,74,74,0,0,124,125,124,124,125,125,126,125,125,125,125,124,124,124,124,124,125,0,203,206,207,207,209,208,207,211,203,204,204,212,216,217,218,222,223,226,226,226,226,225,226,226,226,225,226,226,226,226,225,225,224,224,223,223,223,224,225,227,226,226,227,227,225,224,226,227,226,228,228,226,226,226,227,0,0,0,0,0,0,0,0,72,0,0,0,0,0,0,0,0,0,0,0,0,214,214,212,212,212,217,0,219,221,0,0,0,127,126,126,126,127,126,127,127,126,128,128,127,128,127,127,127,127,127,127,126,0,83,81,83,81,80,80,80,80,80,80,80,80,80,79,80,80,80,79,80,79,80,80,81,80,81,81,82,81,82,81,82,81,81,81,81,81,81,81,81,81,81,81,81,80,81,80,81,81,81,81,81,81,82,82,82,82,81,0,0,0,0,0,0,0
0,0,0,0,0,0,0,0,0,0,0,0,0,0,0,0,0,0,0,0,0,0,81,81,82,81,81,81,80,82,80,81,80,81,81,81,81,82,80,80,80,80,78,79,78,79,79,79,80,79,77,79,77,78,78,77,78,78,78,78,78,78,78,77,77,77,77,78,77,77,77,77,77,77,77,77,76,77,76,77,76,77,76,76,77,76,76,76,76,76,76,76,76,76,76,76,75,75,75,75,75,76,77,77,76,78,77,76,78,78,81,83,85,88,88,89,90,90,90,91,91,92,94,95,96,98,99,99,98,98,98,96,94,93,93,93,93,88,87,86,84,85,81,81,82,83,80,82,80,80,80,79,81,80,80,79,77,79,77,76,75,75,74,74,74,74,73,72,74,72,72,72,72,73,73,74,74,74,74,75,74,74,74,72,74,75,75,74,75,73,74,73,0,124,125,124,124,125,125,126,125,125,125,124,124,123,123,124,0,0,204,205,209,210,211,212,212,212,215,210,214,208,214,218,218,219,223,223,226,226,226,225,225,226,225,225,225,225,225,225,226,224,225,224,223,223,223,223,225,225,227,226,227,227,226,224,224,226,227,225,227,227,226,226,226,225,226,0,0,0,0,0,0,0,0,0,0,0,0,0,0,0,0,0,0,0,215,214,214,213,213,213,217,218,219,221,218,219,217,0,126,126,126,127,126,128,127,126,129,129,127,128,127,127,127,127,127,127,126,0,82,81,83,81,81,80,80,80,80,80,80,79,80,79,80,80,80,79,80,79,80,80,81,80,81,81,82,81,82,81,81,81,81,81,81,81,81,81,81,81,81,81,81,80,81,80,81,81,81,81,80,81,81,82,82,82,81,0,0,0,0,0,0,0
0,0,0,0,0,0,0,0,0,0,0,0,0,0,0,0,0,0,0,0,0,0,81,81,82,81,81,82,80,82,80,81,81,81,81,82,81,82,80,80,80,80,78,79,78,79,79,79,80,79,77,79,76,78,78,77,77,78,78,78,78,78,78,77,77,77,77,78,77,78,77,77,77,77,77,77,76,76,76,76,76,76,76,76,76,76,76,76,75,76,76,75,75,76,76,76,76,76,76,75,76,77,77,78,77,79,79,78,80,81,82,84,87,89,89,90,91,91,91,91,92,93,94,95,96,99,99,99,98,99,98,97,94,93,94,94,94,89,88,87,85,86,82,82,83,83,81,83,81,81,80,79,81,80,80,80,78,79,77,76,75,75,74,74,74,74,73,72,74,73,72,72,71,73,73,74,74,74,74,75,74,74,74,72,73,74,75,74,74,72,73,71,0,125,125,124,124,125,125,125,125,125,125,124,124,123,123,123,0,0,204,206,210,212,212,213,212,214,216,213,0,211,216,219,218,220,224,223,225,226,226,225,225,225,225,225,225,225,225,225,225,223,225,223,223,223,223,224,225,225,227,226,227,227,226,225,224,225,226,225,226,226,225,224,224,224,224,0,0,0,0,173,0,0,0,0,0,0,0,0,0,0,0,0,217,216,216,215,215,213,213,213,217,218,219,221,219,219,217,219,0,126,127,127,127,128,127,126,129,129,127,129,127,127,127,127,128,127,126,0,82,81,83,81,81,80,80,80,80,80,80,79,80,79,80,80,79,79,80,79,80,80,80,80,81,81,82,81,82,81,81,81,81,81,81,81,81,81,81,81,81,81,81,80,81,80,81,80,81,81,80,81,81,81,82,81,80,0,0,0,0,0,0,0
0,0,0,0,0,0,0,0,0,0,0,0,0,0,0,0,0,0,0,0,0,0,81,81,82,81,81,82,80,82,80,81,81,81,81,82,81,82,80,80,80,80,78,79,78,79,79,79,79,79,77,78,76,78,77,77,77,78,78,78,78,77,78,77,77,77,77,78,77,78,77,77,77,77,77,77,77,76,76,76,76,76,76,76,76,76,75,76,75,76,76,75,75,77,76,76,76,76,76,76,77,77,78,79,78,81,81,80,82,83,85,87,89,90,91,91,92,91,91,92,92,93,94,96,97,99,99,99,98,99,98,97,95,94,94,95,95,90,89,88,86,86,82,83,83,84,82,83,81,81,80,79,81,80,80,80,78,79,77,76,75,75,74,0,74,74,73,72,74,73,72,72,71,73,73,74,74,74,74,75,74,73,73,71,72,74,75,73,74,71,0,0,0,125,125,124,125,125,125,126,125,125,125,124,124,123,123,123,0,0,204,206,210,212,212,213,213,214,216,213,0,212,215,219,219,220,225,223,225,225,225,225,224,225,225,225,225,225,225,226,225,223,224,223,224,224,224,225,226,225,227,226,226,227,226,225,224,225,226,224,226,226,224,223,223,223,222,0,0,0,173,0,0,0,0,0,0,0,0,0,0,0,217,220,217,217,216,215,215,213,214,214,218,218,219,221,219,219,218,219,220,0,127,127,127,128,128,127,129,129,128,129,128,127,127,127,128,127,126,0,82,82,83,81,81,80,80,80,80,80,80,79,80,79,79,79,79,79,80,79,80,80,81,80,81,81,82,81,82,81,81,81,81,81,81,81,81,81,81,81,81,81,81,80,81,81,81,81,81,81,80,81,81,81,81,80,79,0,0,0,0,0,0,0
0,0,0,0,0,0,0,0,0,0,0,0,0,0,0,0,0,0,0,0,0,0,81,81,82,81,81,82,80,82,80,81,81,81,81,82,81,82,81,80,80,80,78,79,78,79,78,79,79,79,77,78,76,77,77,77,77,77,78,78,78,77,78,77,77,77,77,78,78,78,77,77,78,78,77,77,77,76,76,76,76,76,76,76,76,76,75,75,75,76,76,75,75,77,76,76,76,76,76,76,77,78,79,80,79,82,82,82,84,86,87,89,90,91,91,92,92,92,92,92,92,93,95,96,97,99,100,99,99,99,98,97,96,95,95,96,96,91,89,89,86,86,83,83,84,84,82,84,82,81,81,80,82,80,80,80,78,80,78,76,0,0,0,0,0,74,73,72,74,73,72,72,0,0,0,74,74,74,74,75,73,73,73,71,72,0,0,0,0,0,0,0,0,125,125,125,125,125,125,126,125,125,125,124,125,123,123,124,0,0,204,206,210,212,212,212,212,213,215,213,0,213,216,219,219,221,225,223,224,225,225,224,224,224,224,224,224,225,224,226,225,223,224,223,224,224,224,226,226,226,226,226,226,227,225,225,224,225,225,224,225,225,223,223,222,222,221,0,0,0,0,0,0,0,0,0,0,0,224,222,219,219,218,220,218,218,217,216,216,214,215,215,218,218,219,221,219,220,218,220,220,0,0,127,127,128,128,127,129,129,128,129,128,127,127,127,127,126,126,0,83,82,83,81,81,80,80,80,80,80,80,79,80,79,79,79,79,79,80,79,80,80,80,80,81,81,82,81,82,81,81,81,81,81,81,81,81,81,81,81,81,81,81,80,81,81,81,81,81,81,80,80,80,81,81,80,79,0,0,0,0,0,0,0
0,0,0,0,0,0,0,0,0,0,0,0,0,0,0,0,0,0,0,0,0,0,81,81,82,81,81,82,80,82,80,81,80,81,81,82,81,82,81,80,81,80,78,79,78,79,78,79,79,79,77,78,76,77,77,76,77,77,78,78,77,77,78,77,78,77,78,78,78,79,78,78,78,78,77,77,77,76,76,76,76,76,76,76,76,75,75,75,75,76,75,75,75,77,76,76,77,76,76,76,77,78,79,80,79,83,84,84,86,88,89,90,92,93,93,93,93,93,93,93,93,93,95,96,97,99,100,99,99,100,98,97,96,95,96,97,97,92,90,89,87,86,83,83,84,85,83,84,82,82,81,80,82,80,80,80,79,80,78,77,0,0,0,161,0,74,0,0,74,0,0,0,0,0,0,0,0,0,74,75,73,73,73,71,72,0,0,0,0,0,0,0,124,125,125,125,125,125,125,126,125,125,125,124,125,123,123,124,0,0,204,206,210,211,212,212,211,213,215,212,0,213,216,219,219,221,225,223,224,224,224,224,223,224,224,224,224,225,224,226,224,223,224,224,224,224,224,226,226,226,226,226,225,227,225,225,224,225,224,223,224,225,222,222,221,221,220,220,216,0,0,0,0,0,0,0,225,226,223,222,220,220,219,220,219,218,218,217,217,215,215,217,218,218,219,221,219,220,218,220,221,0,0,127,127,129,128,127,130,129,128,130,128,128,128,127,127,126,0,83,82,82,83,81,81,80,80,80,80,80,80,79,80,79,79,80,79,79,80,79,80,80,81,81,81,81,82,81,82,81,81,81,81,81,81,81,81,81,81,81,81,81,81,81,81,81,81,81,81,81,80,80,80,81,81,80,80,0,0,0,0,0,0,0
0,0,0,0,0,0,0,0,0,0,0,0,0,0,0,0,0,0,0,0,0,0,81,81,82,81,81,82,80,82,80,81,80,81,81,82,81,82,81,80,81,80,78,79,78,79,78,79,79,79,77,78,76,77,77,76,77,77,78,77,77,77,78,77,77,77,78,78,78,79,77,78,78,78,78,77,77,76,76,76,76,76,76,76,76,76,75,75,75,76,75,75,75,77,76,76,77,76,77,76,78,78,80,82,81,85,86,86,88,90,91,92,94,94,94,94,94,94,94,94,94,94,96,97,98,99,100,99,99,100,99,98,97,96,97,97,99,94,90,90,88,87,84,84,85,85,84,85,83,82,81,80,82,80,80,80,79,80,0,0,163,163,161,162,165,0,0,0,0,0,0,0,0,0,0,0,0,0,0,75,0,72,73,71,0,0,0,0,0,0,0,0,125,125,125,125,125,125,125,126,125,125,125,124,125,124,123,124,0,0,205,206,209,211,211,211,210,212,214,208,209,207,214,219,218,220,226,222,223,224,224,224,223,223,224,224,224,225,224,226,225,223,224,224,224,224,224,226,226,226,226,226,225,227,225,225,224,225,224,223,224,224,222,222,221,220,220,219,217,214,0,0,0,218,227,225,224,225,223,222,220,220,219,221,219,219,218,218,218,216,217,217,218,219,220,222,219,221,219,221,221,0,0,128,127,129,128,127,130,130,128,130,128,128,128,127,127,126,0,82,81,81,82,81,81,80,80,80,80,80,80,79,80,79,79,80,79,79,80,79,80,81,81,81,81,81,82,82,82,81,81,81,81,81,81,81,82,82,81,81,81,81,81,80,81,81,81,81,81,81,81,80,80,81,81,80,80,0,0,0,0,0,0,0
0,0,0,0,0,0,0,0,0,0,0,0,0,0,0,0,0,0,0,0,0,0,82,81,82,81,81,82,80,82,80,81,80,81,80,82,80,81,81,80,81,80,78,79,78,79,78,79,79,79,77,78,76,77,77,76,77,77,78,77,77,77,78,77,77,77,78,78,78,79,77,78,78,78,78,77,77,76,76,76,76,77,76,76,76,76,76,75,75,76,75,75,75,77,76,76,77,76,77,76,78,79,80,83,83,86,87,88,89,91,92,93,95,95,95,95,95,94,94,95,95,95,97,98,98,99,100,100,100,101,100,100,100,99,100,99,100,98,93,92,90,88,85,85,86,86,85,85,0,83,81,80,83,80,80,81,79,80,0,164,164,164,162,163,165,164,162,0,0,0,164,164,165,0,0,0,202,206,0,0,0,72,0,0,0,0,0,0,0,0,0,125,125,126,126,125,125,126,125,126,125,125,125,125,125,124,0,0,0,0,205,206,209,210,211,210,210,211,213,205,0,201,213,219,218,221,227,223,224,224,224,224,224,224,224,224,224,225,224,226,225,223,224,224,224,224,224,226,226,226,227,226,225,227,225,225,224,224,224,223,223,224,222,221,221,220,219,219,217,215,211,212,210,218,225,224,223,225,224,222,221,221,220,222,220,220,219,219,219,217,218,218,219,219,220,223,220,221,219,221,222,0,0,128,127,129,129,128,130,130,128,130,128,128,128,127,127,126,0,81,80,81,82,81,81,80,80,80,80,80,79,79,80,79,79,80,79,79,80,80,80,81,81,81,81,82,82,82,82,82,82,81,81,81,81,81,82,82,81,81,81,81,81,80,81,81,81,81,81,81,81,80,80,81,81,80,80,0,0,0,0,0,0,0
0,0,0,0,0,0,0,0,0,0,0,0,0,0,0,0,0,0,0,0,0,0,82,81,82,81,81,82,80,82,80,80,80,81,80,82,80,81,81,80,81,80,78,79,78,79,78,79,79,79,77,78,76,77,77,76,77,77,78,77,78,77,78,78,78,77,78,78,78,79,77,78,78,78,78,77,77,76,77,76,76,77,76,76,76,76,76,76,75,76,75,75,76,77,76,76,77,77,77,77,78,79,81,84,84,87,88,89,89,91,93,93,96,96,96,96,95,95,95,96,96,97,99,99,99,100,101,100,100,102,101,101,101,101,102,101,102,101,97,96,92,90,87,87,87,87,86,0,0,0,82,0,0,81,0,0,0,0,165,165,165,165,163,164,165,165,163,163,165,165,164,164,165,0,0,0,0,205,210,0,0,0,0,0,0,0,0,0,128,127,127,125,126,126,126,126,126,126,125,126,125,125,125,124,125,0,0,0,207,204,205,206,208,209,209,209,208,208,210,204,0,200,210,218,218,221,228,224,224,224,224,224,224,224,224,224,224,225,224,226,225,223,224,224,224,224,225,226,226,226,227,226,225,227,224,225,224,224,223,223,223,223,221,221,221,219,219,219,217,217,213,214,213,218,224,223,223,224,224,223,222,221,221,222,220,220,220,220,220,218,218,219,219,220,220,222,220,221,220,222,223,0,0,128,127,130,129,128,130,130,128,130,128,128,128,127,127,126,0,0,80,82,83,81,82,81,80,81,80,80,80,79,80,79,80,80,79,80,80,80,80,81,81,81,81,82,82,82,82,81,82,81,81,82,81,82,82,82,81,81,81,81,81,80,81,81,80,81,81,81,81,80,80,81,81,81,80,0,0,0,0,0,0,0
0,0,0,0,0,0,0,0,0,0,0,0,0,0,0,0,0,0,0,0,0,0,82,81,82,81,81,82,80,82,80,80,80,81,80,82,80,81,81,79,81,80,78,79,78,79,78,79,79,79,78,78,76,78,77,76,77,77,78,77,78,77,78,77,77,77,78,78,78,79,77,77,78,78,77,77,77,76,77,77,76,77,77,77,76,77,76,76,76,76,76,76,76,78,76,76,77,77,77,77,79,80,82,85,85,88,89,89,90,92,94,94,97,98,97,97,96,96,96,97,97,98,100,100,99,100,101,100,100,102,102,102,102,102,103,102,103,102,100,100,96,94,89,89,88,89,0,0,0,0,0,0,0,0,0,0,171,167,165,165,165,165,164,164,166,165,164,164,165,165,165,165,165,167,0,0,0,0,208,0,0,0,0,0,0,0,0,128,129,128,128,126,126,127,127,126,126,126,126,126,125,126,126,125,125,0,0,0,208,205,206,206,208,208,208,207,206,206,207,203,200,200,207,0,217,221,229,224,224,224,224,224,224,224,224,224,224,225,224,226,225,222,224,224,224,224,224,226,226,226,227,226,225,227,224,225,224,224,223,223,223,223,221,221,220,219,219,219,217,218,215,215,214,218,223,223,223,224,224,224,223,222,223,223,221,220,221,220,220,219,219,219,220,220,220,222,221,221,220,222,225,0,0,128,127,130,129,128,130,130,129,131,129,129,129,128,127,126,0,0,81,82,83,82,82,81,80,81,80,80,80,80,80,79,80,80,80,80,80,80,81,81,81,81,81,82,82,82,82,81,81,81,81,82,81,82,82,82,81,81,81,81,81,80,81,81,80,81,81,81,81,80,81,81,81,81,81,0,0,0,0,0,0,0
0,0,0,0,0,0,0,0,0,0,0,0,0,0,0,0,0,0,0,0,0,0,82,81,82,81,81,82,80,82,80,80,80,81,80,82,80,81,81,79,81,80,78,79,78,79,78,79,79,79,78,78,77,78,78,76,78,77,78,77,78,78,78,77,77,77,78,78,78,78,77,77,78,78,77,77,77,76,77,76,76,77,76,76,76,76,76,75,75,76,76,76,76,78,76,76,77,77,77,77,79,81,83,86,86,88,89,90,90,93,95,95,98,98,97,98,97,97,97,98,98,99,100,100,99,100,101,100,99,102,101,102,102,103,103,102,103,103,102,102,100,99,0,0,0,0,0,0,0,179,177,177,175,170,168,170,170,167,165,165,165,165,164,164,166,165,164,165,166,166,165,165,165,167,165,0,0,0,0,0,161,0,0,0,0,0,129,129,129,128,128,126,127,127,127,126,126,127,126,127,126,126,126,125,126,0,0,0,209,206,207,206,208,208,209,208,207,208,209,204,0,200,207,0,217,224,230,225,224,224,224,224,224,224,224,224,224,225,224,226,225,222,224,224,224,224,224,226,226,226,227,226,225,227,224,225,224,224,223,222,223,223,221,220,220,219,218,219,217,218,215,216,215,218,223,222,222,224,225,225,223,223,224,224,222,221,221,221,221,219,220,220,220,220,221,223,221,222,220,223,0,0,0,128,127,130,128,128,129,130,129,132,130,130,130,128,127,126,124,0,84,84,84,82,83,81,81,81,81,81,80,80,80,79,80,80,80,80,80,80,80,81,81,81,81,82,82,82,82,81,81,81,81,82,81,82,82,82,81,81,81,81,81,81,81,81,80,81,81,81,81,80,81,82,82,81,81,0,0,0,0,0,0,0
0,0,0,0,0,0,0,0,0,0,0,0,0,0,0,0,0,0,0,0,0,0,82,81,82,81,81,82,80,82,80,80,80,81,80,82,80,81,81,79,81,80,78,79,78,79,78,79,79,79,78,78,77,78,77,76,77,77,78,77,78,78,78,77,77,78,78,78,78,78,77,78,78,77,77,77,77,76,77,77,76,77,76,76,76,76,76,75,75,76,76,75,76,78,76,76,78,77,77,78,80,81,84,86,87,89,89,90,90,93,95,95,98,99,98,98,97,97,97,98,98,99,100,100,99,99,100,99,99,102,101,102,102,103,104,103,103,104,0,0,0,0,0,0,0,172,173,176,175,175,174,173,172,169,167,169,169,167,165,165,165,165,164,165,166,166,165,165,166,166,166,165,165,166,165,166,0,0,0,0,162,0,0,0,0,0,129,129,129,128,128,126,127,127,127,126,126,127,126,127,126,126,126,125,126,0,0,0,210,207,208,208,210,210,212,210,210,214,214,213,215,212,215,218,219,224,231,225,224,224,224,224,223,223,224,224,224,225,224,226,225,222,224,224,224,224,224,226,226,226,227,226,225,227,224,226,224,225,223,223,223,223,221,220,219,218,218,218,217,218,215,216,214,218,222,222,222,224,225,225,224,224,225,225,224,223,223,223,222,220,221,221,221,221,222,224,223,223,222,224,0,0,127,127,127,129,128,127,129,130,128,132,131,130,131,128,127,126,125,0,0,0,85,84,85,83,81,82,82,81,80,80,80,80,81,81,80,80,80,80,80,82,81,81,81,82,82,82,82,82,82,82,82,82,81,82,82,82,81,81,81,81,81,81,82,81,81,81,81,81,81,80,81,82,82,81,81,0,0,0,0,0,0,0
0,0,0,0,0,0,0,0,0,0,0,0,0,0,0,0,0,0,0,0,0,0,82,81,82,81,81,82,80,82,80,80,81,81,80,82,80,81,81,79,81,80,78,79,78,79,78,79,79,79,78,78,77,78,77,76,77,77,78,77,77,77,78,77,77,77,78,77,78,78,77,78,78,78,77,77,77,76,77,77,77,77,77,77,76,77,76,76,76,77,76,76,77,78,77,77,78,77,78,78,81,82,84,87,87,89,90,90,91,94,96,95,98,99,98,98,97,98,97,98,99,99,100,100,99,99,100,99,99,102,101,102,102,103,104,103,104,0,0,0,167,0,0,169,170,171,171,171,171,172,172,171,170,168,167,169,169,167,166,166,166,165,165,165,166,166,166,166,166,166,166,166,165,166,166,167,167,164,167,162,164,165,0,0,0,0,130,130,129,129,128,127,127,127,127,127,127,127,126,127,126,126,126,126,0,0,0,207,212,208,210,210,211,212,215,213,213,218,217,218,220,221,222,223,223,227,231,225,224,224,224,224,223,223,224,224,224,225,224,226,225,222,224,224,224,224,224,226,226,226,227,226,225,227,224,226,224,225,224,223,223,223,221,220,219,218,0,218,217,218,215,216,213,217,221,221,221,224,225,226,224,224,226,225,224,223,223,223,223,221,222,222,221,222,223,226,224,224,224,0,0,127,127,126,126,128,127,127,128,130,128,131,131,130,130,129,128,128,127,127,0,0,0,84,85,83,82,83,82,82,80,80,80,80,81,81,80,80,80,80,81,82,81,81,82,82,82,82,82,82,82,82,82,82,81,82,82,82,81,81,81,81,81,81,82,81,81,81,81,81,81,80,81,82,82,81,81,0,0,0,0,0,0,0
0,0,0,0,0,0,0,0,0,0,0,0,0,0,0,0,0,0,0,0,0,0,82,81,82,82,81,82,80,82,80,81,81,81,80,81,80,81,80,79,81,80,78,79,78,79,78,79,79,79,78,78,77,78,78,76,77,77,78,77,78,78,78,77,77,78,78,77,78,79,77,78,78,78,77,77,77,76,77,77,77,77,77,77,76,77,76,76,76,77,76,76,77,78,77,77,78,78,78,79,81,83,85,87,88,89,90,90,91,94,96,95,98,99,98,98,97,98,98,98,99,99,100,100,99,99,100,99,99,102,102,103,103,104,105,0,0,0,163,0,166,168,167,167,168,169,169,168,169,170,170,169,169,168,167,168,168,168,167,166,167,166,166,166,167,167,167,167,167,167,167,166,166,166,166,167,168,165,167,164,165,165,169,0,0,0,131,131,130,130,129,127,128,128,128,127,127,127,126,127,126,127,126,126,0,0,211,210,215,212,213,212,213,215,218,217,217,221,225,224,226,228,229,229,229,229,232,226,225,225,224,224,223,223,224,224,224,225,224,226,225,222,224,224,224,223,223,226,225,225,226,227,225,227,224,226,224,225,224,223,223,223,220,220,0,0,0,0,217,218,0,0,0,0,220,220,220,223,225,225,224,224,226,225,224,223,223,223,222,221,222,223,222,221,223,227,0,0,0,0,127,127,127,127,127,129,128,127,129,130,128,131,131,130,130,129,129,130,129,129,0,0,0,84,85,82,82,83,83,82,81,80,80,80,81,81,80,80,80,81,81,82,81,81,82,82,82,82,82,82,82,82,82,82,81,82,82,82,81,81,81,82,81,81,82,81,81,81,81,81,81,80,81,82,82,81,80,0,0,0,0,0,0,0
0,0,0,0,0,0,0,0,0,0,0,0,0,0,0,0,0,0,0,0,0,0,82,81,82,82,81,82,80,82,80,81,81,81,81,81,81,81,81,80,81,80,79,79,79,79,78,79,79,79,78,78,77,78,78,76,77,77,78,77,78,78,78,78,78,78,78,78,78,79,78,78,78,78,77,77,77,76,77,77,77,77,77,77,76,77,76,76,76,77,76,76,77,78,77,77,78,78,78,79,82,84,85,87,88,89,90,91,91,94,95,95,98,99,98,98,97,98,97,98,99,99,100,100,99,99,100,99,99,102,102,103,103,104,0,0,0,156,162,166,165,167,165,165,166,168,167,167,167,168,168,168,167,166,166,167,167,168,167,166,167,166,166,166,167,167,167,167,167,167,167,167,166,166,166,167,168,166,167,165,165,165,168,168,0,0,0,131,131,130,129,128,128,128,128,128,127,128,127,127,127,128,127,127,0,0,214,214,217,214,215,214,215,217,219,218,218,221,224,223,225,226,230,230,231,230,232,227,225,226,225,225,223,223,224,224,224,225,224,226,224,222,223,224,224,223,223,226,225,225,226,227,225,227,224,227,225,226,224,223,223,223,0,0,0,80,80,0,0,0,0,0,0,0,220,220,220,224,226,226,224,224,226,225,224,223,223,223,222,221,223,223,222,221,224,0,0,0,0,129,128,128,128,127,128,129,128,128,129,130,129,130,131,130,130,130,130,131,130,130,0,0,0,0,85,82,82,83,83,83,81,81,81,80,81,81,80,80,80,81,81,83,81,81,82,82,82,82,82,82,82,82,82,82,81,82,82,82,81,81,81,82,81,81,82,81,81,81,81,81,81,80,81,82,82,81,80,0,0,0,0,0,0,0
0,0,0,0,0,0,0,0,0,0,0,0,0,0,0,0,0,0,0,0,0,0,82,82,82,82,81,82,80,82,80,81,81,81,81,81,80,81,80,80,80,80,79,79,78,80,78,79,79,79,78,78,77,78,78,76,77,77,78,77,78,78,78,78,78,78,79,78,78,79,78,78,79,78,78,77,77,76,77,77,77,77,77,77,76,77,76,76,76,77,76,76,77,78,77,77,79,78,79,80,83,85,86,88,89,90,91,91,92,94,96,95,98,99,98,98,97,98,97,98,99,99,100,100,99,100,100,99,99,103,103,104,105,109,0,164,156,155,158,162,164,165,165,165,166,167,167,167,167,167,167,167,167,167,166,167,167,168,168,167,167,166,167,167,167,167,167,168,167,167,167,167,166,166,166,167,168,166,167,166,166,166,168,168,169,0,0,0,0,131,130,129,129,129,129,129,128,129,127,128,127,129,128,129,0,0,215,214,217,215,216,214,215,217,219,217,218,220,222,222,223,225,228,229,229,229,231,227,225,225,224,225,223,223,223,224,224,225,223,226,224,223,223,224,224,223,224,226,225,225,226,227,225,227,224,228,226,227,225,224,224,0,0,0,78,79,80,80,77,77,0,0,0,0,0,0,220,224,227,227,225,225,227,226,224,224,223,223,221,221,222,222,221,221,224,0,0,0,130,130,129,129,129,128,129,130,129,128,129,131,129,130,131,130,130,130,130,131,131,129,127,127,0,0,84,81,82,83,83,83,81,82,81,81,81,81,81,81,81,82,82,83,82,82,82,82,82,82,83,82,82,82,82,82,81,82,82,82,81,81,81,82,82,81,82,81,81,81,81,81,81,81,81,82,82,82,81,0,0,0,0,0,0,0
0,0,0,0,0,0,0,0,0,0,0,0,0,0,0,0,0,0,0,0,0,0,82,82,82,82,81,82,80,82,80,81,81,81,81,81,80,81,80,80,80,80,79,79,78,80,78,79,79,79,78,78,77,78,78,76,77,77,78,77,78,78,78,78,78,78,79,78,78,79,78,78,79,78,78,78,78,77,78,77,77,77,77,77,76,77,76,76,76,77,76,76,77,78,77,77,79,78,79,80,83,85,87,89,89,90,91,92,92,95,96,96,99,99,98,98,97,98,98,98,99,100,100,100,99,100,101,99,100,104,106,108,112,0,0,164,159,156,158,162,164,165,166,166,167,167,167,167,167,167,168,168,167,167,167,167,168,169,168,168,168,167,167,167,168,168,168,168,168,168,168,168,167,167,167,167,168,167,168,167,167,166,168,168,169,171,0,0,0,0,131,129,130,129,129,129,129,129,127,128,127,129,128,129,0,0,0,214,0,214,0,213,214,216,219,216,217,220,221,221,223,225,226,228,228,227,230,227,225,225,223,224,222,223,223,223,223,225,223,226,224,223,223,223,223,223,224,226,224,225,226,227,225,227,225,228,226,227,226,224,224,0,79,78,78,79,80,80,77,78,75,76,0,0,0,0,220,225,228,227,226,225,227,226,225,224,222,223,221,221,222,222,221,221,225,0,133,131,131,130,129,129,129,129,129,130,129,128,129,130,129,130,131,130,130,131,130,131,130,129,127,126,126,0,0,82,83,84,84,84,81,83,82,82,82,82,81,82,81,83,82,83,81,82,82,82,82,83,83,82,82,82,82,82,81,82,82,82,81,81,81,82,82,81,82,81,81,82,81,81,81,81,81,82,82,82,81,0,0,0,0,0,0,0
0,0,0,0,0,0,0,0,0,0,0,0,0,0,0,0,0,0,0,0,0,0,82,82,82,82,81,82,80,82,80,81,81,81,80,81,80,81,80,80,80,80,79,79,78,80,78,79,79,79,78,78,77,78,78,76,77,77,78,77,78,78,78,78,78,78,79,78,78,79,78,79,79,78,78,78,78,77,78,78,77,77,78,77,77,77,77,76,76,77,76,76,77,77,77,77,79,78,80,81,84,85,87,89,90,91,91,92,93,95,96,96,98,98,98,98,97,98,97,98,99,100,100,100,99,100,101,100,101,105,107,112,116,0,160,164,159,157,158,162,165,166,166,166,167,167,167,167,167,168,168,168,167,167,167,167,168,169,168,168,168,168,168,168,168,168,168,168,168,168,168,168,167,167,167,167,167,167,167,167,167,166,168,168,169,171,171,173,0,0,0,0,130,130,130,130,129,129,0,128,127,129,128,0,0,0,0,0,0,0,0,0,0,0,0,0,216,220,220,221,224,223,225,227,226,226,228,227,225,225,222,224,221,222,222,222,222,224,222,226,224,223,223,223,223,223,223,226,224,225,226,227,225,228,225,228,227,228,226,225,225,0,79,78,78,79,79,80,77,78,76,76,0,0,0,0,221,227,229,228,227,226,227,226,225,224,222,223,221,221,222,222,221,221,225,0,131,130,130,129,129,129,129,128,129,129,129,128,129,130,129,130,131,130,130,131,130,131,130,129,128,127,126,0,0,82,83,84,84,84,81,83,83,82,82,82,81,82,0,0,82,83,81,82,82,82,82,83,83,82,82,82,82,82,82,82,82,82,81,81,81,82,82,81,82,81,81,82,81,82,81,81,81,82,82,82,81,0,0,0,0,0,0,0
0,0,0,0,0,0,0,0,0,0,0,0,0,0,0,0,0,0,0,0,0,0,82,82,82,82,81,82,80,82,80,80,81,80,80,81,80,80,80,80,80,80,79,79,78,80,79,79,79,79,79,78,78,78,78,77,78,77,78,77,78,77,77,78,78,78,79,78,78,79,78,78,79,78,78,78,78,77,78,78,77,78,78,77,77,77,77,76,76,77,76,76,77,77,77,78,79,79,80,82,84,86,88,90,91,91,92,92,93,95,96,95,98,98,97,97,97,98,97,98,99,100,100,100,99,100,101,100,102,106,108,114,0,0,162,165,163,160,161,164,166,166,167,167,168,168,168,168,167,168,168,168,168,168,168,168,168,169,168,168,168,168,168,168,168,168,168,169,168,168,168,168,167,167,167,167,167,167,167,167,166,166,167,167,168,170,171,172,175,177,0,0,0,131,131,0,0,0,0,127,0,129,0,0,0,0,0,0,0,0,0,0,211,0,219,0,217,221,222,222,224,224,225,227,226,226,228,227,225,225,223,224,222,222,222,222,222,224,222,225,224,223,223,223,223,223,223,225,224,225,227,228,226,228,225,228,227,228,227,226,226,0,80,78,78,79,79,79,77,77,76,77,0,0,0,0,0,228,0,230,228,227,228,227,226,224,223,223,221,221,222,222,221,221,0,130,131,130,130,129,129,129,129,128,129,129,129,128,128,130,129,129,131,130,130,131,130,131,130,129,128,127,127,0,0,82,83,84,84,83,81,83,83,82,82,82,81,0,0,0,0,83,81,82,82,82,82,83,83,83,82,82,82,82,82,83,82,82,82,81,82,83,82,81,82,82,81,82,81,82,81,81,81,82,82,82,81,0,0,0,0,0,0,0
0,0,0,0,0,0,0,0,0,0,0,0,0,0,0,0,0,0,0,0,0,0,83,82,82,82,81,82,80,82,80,81,81,80,80,81,80,80,80,80,80,80,79,79,79,80,79,80,80,80,79,78,78,78,78,77,78,77,78,77,78,78,77,78,77,79,79,78,78,79,78,78,79,78,78,78,78,77,78,78,77,78,78,77,77,77,77,77,76,77,76,76,77,77,77,78,80,80,81,83,85,87,89,91,91,92,92,92,93,95,95,95,98,98,97,97,97,98,97,98,99,100,101,100,100,100,101,100,102,106,110,0,0,160,164,166,165,163,163,165,166,167,168,168,168,168,168,168,168,168,168,168,168,168,168,168,169,169,168,168,168,169,169,168,168,168,169,169,168,168,168,167,167,167,167,167,167,166,167,167,166,166,167,167,167,169,171,172,175,177,179,181,0,0,0,0,0,0,0,0,0,0,0,0,0,209,212,210,0,213,212,211,211,0,220,221,220,223,226,225,226,226,227,228,227,227,228,227,225,226,224,225,223,223,222,223,222,223,222,225,224,223,223,223,223,223,223,224,224,224,227,228,226,228,226,229,228,229,227,226,226,0,80,79,78,79,79,79,77,78,77,78,0,0,0,0,0,230,0,0,229,229,229,228,228,225,223,223,221,221,222,222,221,221,0,128,130,129,129,128,128,128,128,128,128,129,128,128,128,130,128,129,131,130,130,131,131,131,130,129,128,128,128,0,0,80,81,82,83,83,81,82,82,82,82,82,81,0,0,0,0,0,82,82,82,83,82,83,83,83,83,83,83,82,82,83,82,83,82,82,82,83,83,81,82,82,81,82,81,82,82,82,82,82,82,82,81,0,0,0,0,0,0,0
0,0,0,0,0,0,0,0,0,0,0,0,0,0,0,0,0,0,0,0,0,0,83,82,82,82,81,82,80,82,80,81,81,80,80,81,80,80,80,80,79,80,79,79,79,81,79,80,80,80,79,78,78,79,78,77,78,77,78,77,78,78,77,78,77,79,79,78,78,79,78,78,79,78,78,78,78,77,78,78,77,78,78,77,77,78,77,77,76,76,76,76,77,77,77,78,81,81,82,84,86,88,89,91,92,92,92,93,93,95,95,95,97,98,97,97,97,98,98,99,100,101,101,101,100,101,102,101,0,108,0,0,0,163,166,167,166,164,164,166,167,168,168,168,168,168,168,168,168,168,168,168,168,168,168,168,169,169,168,168,168,169,169,168,168,168,168,168,168,168,167,167,166,167,166,166,167,166,166,167,166,166,167,167,167,169,171,173,176,179,181,0,0,0,0,0,0,0,0,0,0,191,195,199,0,206,210,204,0,213,212,212,213,216,221,225,225,226,228,226,227,227,228,229,228,227,228,227,226,226,224,226,223,224,223,223,223,222,222,224,224,222,223,222,222,222,222,224,223,223,227,228,227,228,226,229,228,229,227,226,226,0,80,78,78,79,79,79,78,78,77,79,76,0,0,0,0,231,0,0,230,230,230,229,229,227,224,224,221,222,222,222,221,222,0,0,129,127,128,127,127,127,128,127,128,128,128,127,127,130,128,128,131,129,130,130,130,131,130,129,129,128,128,0,83,80,81,82,83,83,81,82,82,82,82,82,82,0,0,0,0,0,0,0,82,83,83,83,84,83,83,83,83,82,82,83,82,83,82,82,82,83,83,80,82,81,81,82,81,82,81,81,82,82,82,82,81,0,0,0,0,0,0,0
0,0,0,0,0,0,0,0,0,0,0,0,0,0,0,0,0,0,0,0,0,0,83,82,82,83,82,81,81,82,80,81,81,80,80,81,80,80,80,80,79,80,79,79,79,81,80,80,80,80,79,78,79,79,78,77,79,78,79,77,78,78,77,78,77,79,79,78,78,79,78,78,79,78,78,78,78,77,78,78,77,78,78,77,77,78,77,77,76,76,76,76,77,77,77,79,81,81,83,85,87,89,90,91,92,92,92,93,93,95,95,95,97,98,97,97,97,98,97,99,100,101,101,101,100,101,102,0,0,0,0,0,168,164,166,168,167,165,166,167,167,168,168,168,168,168,168,168,168,168,168,169,169,169,169,169,169,169,168,168,168,169,169,168,168,168,168,168,168,168,167,167,166,167,166,166,167,167,166,167,167,166,167,167,167,170,174,176,179,181,183,0,0,0,0,0,0,0,0,192,194,191,195,199,0,205,208,0,0,0,213,213,215,221,223,228,227,228,229,227,228,227,228,228,227,227,228,227,226,225,224,225,222,223,222,222,222,221,221,223,223,222,222,222,222,221,222,224,223,223,227,228,227,229,226,229,228,229,228,227,226,0,79,78,77,78,78,79,78,77,77,78,76,78,0,0,0,0,0,0,231,230,231,230,230,227,224,224,222,222,222,223,222,222,0,127,129,127,128,127,127,127,128,127,128,128,128,127,127,130,128,128,131,129,129,130,130,130,130,129,129,128,128,0,83,80,81,81,83,83,81,82,82,82,82,0,0,0,0,0,0,0,0,0,0,0,83,83,84,84,83,83,83,82,82,83,82,83,82,82,82,83,83,80,81,81,81,81,81,81,81,81,82,82,82,82,81,0,0,0,0,0,0,0
0,0,0,0,0,0,0,0,0,0,0,0,0,0,0,0,0,0,0,0,0,0,83,82,82,83,82,81,81,82,80,80,80,80,80,81,80,80,80,80,78,80,79,78,79,80,79,80,80,79,79,78,78,78,78,77,78,77,78,77,78,78,77,77,77,79,79,77,78,79,78,78,78,78,78,77,78,77,78,78,77,78,78,77,77,77,77,77,76,76,76,76,77,77,77,79,81,82,84,86,88,90,91,92,93,93,93,93,94,95,96,95,97,98,97,97,98,98,98,99,100,101,101,101,100,101,102,0,0,0,0,166,168,165,167,168,167,166,166,167,167,168,168,168,168,168,168,168,168,168,168,169,169,169,169,169,169,169,168,169,168,169,169,168,168,168,169,168,168,168,167,167,167,167,167,167,167,167,167,167,167,167,168,168,168,171,179,180,181,182,0,0,0,0,0,0,0,0,0,0,192,190,194,0,0,0,0,0,0,0,217,219,221,228,227,229,229,229,230,228,228,227,228,228,227,227,228,227,225,224,222,223,220,221,220,221,220,220,220,221,222,221,221,221,221,221,222,224,222,223,226,228,228,229,227,229,229,230,228,227,226,0,0,77,77,78,78,79,77,77,77,78,75,78,0,0,0,0,0,0,0,231,231,230,231,228,225,224,222,223,222,223,222,0,0,128,130,128,129,128,127,128,129,127,128,129,128,127,127,130,128,128,132,129,129,130,130,130,129,129,129,128,129,0,82,80,81,81,83,82,81,82,82,82,82,0,0,0,0,0,0,0,0,0,0,0,0,83,84,0,0,83,83,82,82,82,81,83,82,82,83,84,83,80,81,81,81,81,81,81,81,81,82,82,82,82,81,0,0,0,0,0,0,0
0,0,0,0,0,0,0,0,0,0,0,0,0,0,0,0,0,0,0,0,0,0,83,82,82,83,82,81,80,82,80,80,80,80,80,80,80,79,80,79,78,79,78,78,78,80,79,80,80,79,79,78,78,78,78,77,78,77,78,77,77,77,76,77,77,78,78,77,77,78,77,78,78,78,77,77,77,77,78,78,77,77,77,77,77,77,76,76,76,76,76,76,77,77,78,80,82,83,85,87,89,90,91,92,93,93,93,94,94,95,96,95,97,98,97,96,97,98,98,98,99,100,100,100,98,99,0,0,159,162,165,166,167,165,167,168,168,166,167,167,167,167,168,168,168,168,168,168,168,168,168,168,169,169,169,169,169,169,168,168,168,168,168,168,168,168,169,168,168,169,167,167,167,167,167,167,168,167,167,168,168,168,168,169,168,173,182,182,182,183,185,0,0,0,0,0,0,0,0,0,0,189,0,0,0,0,0,0,0,0,220,223,223,229,228,229,229,229,229,228,228,227,227,227,226,226,227,226,224,223,222,222,220,221,220,221,220,220,220,221,221,221,221,221,221,221,222,223,222,223,224,228,228,229,228,230,229,230,229,228,227,226,0,0,77,77,77,78,77,77,77,77,75,78,81,0,0,0,0,0,0,231,231,230,232,229,226,225,222,223,223,223,0,0,0,128,130,128,129,128,128,128,129,128,129,129,129,128,127,130,129,128,132,129,129,130,130,130,129,129,129,128,128,0,81,80,80,80,82,81,81,81,81,81,81,81,81,0,0,0,0,0,0,0,0,0,0,83,83,0,0,82,83,82,82,0,0,0,83,0,83,84,83,80,81,81,81,82,81,82,81,82,82,83,82,83,81,0,0,0,0,0,0,0
0,0,0,0,0,0,0,0,0,0,0,0,0,0,0,0,0,0,0,0,0,0,83,82,82,83,82,81,80,82,80,80,80,79,80,80,79,79,79,79,77,78,78,78,78,79,79,79,80,79,78,78,78,78,77,77,77,77,78,77,76,77,76,77,77,78,78,77,77,79,78,78,78,77,77,77,77,77,77,78,77,77,77,77,76,77,76,76,76,76,76,76,77,77,78,81,83,84,86,89,90,91,92,93,94,94,94,94,95,96,96,96,97,97,96,96,97,97,97,98,99,100,100,0,0,0,0,160,159,161,163,164,165,165,167,168,167,166,167,167,167,167,168,168,168,168,168,168,168,168,168,168,169,169,169,169,169,169,168,169,168,168,168,168,168,168,168,168,168,169,167,167,167,167,167,167,168,168,168,168,169,169,169,169,169,173,184,183,183,185,187,190,0,0,0,0,0,0,0,0,0,189,0,0,0,0,0,0,228,228,223,226,226,230,229,229,229,229,229,228,228,226,227,227,226,226,227,226,224,224,222,222,221,221,220,221,220,220,221,221,221,221,220,220,220,221,221,223,222,223,223,227,228,229,228,230,230,231,229,228,227,227,0,0,77,78,77,79,77,77,77,77,74,78,80,0,0,0,0,0,0,231,231,230,231,230,227,226,223,225,224,224,0,0,0,128,131,128,129,128,128,128,129,128,129,129,129,128,128,131,129,128,131,129,129,130,130,130,129,129,128,127,0,0,81,79,80,80,82,81,80,81,81,81,81,81,81,0,0,0,0,0,0,0,0,0,0,83,83,0,0,82,83,82,83,0,0,0,0,0,0,85,83,81,82,82,82,82,82,82,82,82,82,83,83,83,82,0,0,0,0,0,0,0
0,0,0,0,0,0,0,0,0,0,0,0,0,0,0,0,0,0,0,0,0,0,83,82,82,83,82,81,81,82,80,80,80,79,79,80,79,79,79,79,77,78,78,77,77,79,78,78,78,78,77,77,77,77,76,76,76,75,76,75,75,76,75,77,76,77,78,76,76,78,77,77,77,77,77,78,78,77,77,78,77,77,77,77,77,77,77,77,76,76,76,76,77,78,79,83,85,86,88,90,91,92,93,94,95,95,95,95,95,96,96,96,96,97,96,96,96,97,96,97,100,100,0,0,0,158,159,159,159,160,162,162,163,164,166,167,167,166,167,167,167,167,168,168,168,168,168,168,168,168,168,169,169,169,169,169,169,169,168,169,167,168,168,168,168,168,168,168,168,169,167,167,167,167,167,168,168,168,168,169,169,169,169,170,170,174,183,182,183,184,187,191,194,0,0,0,0,0,0,0,0,0,0,221,224,225,227,227,228,230,227,229,229,240,231,232,230,230,230,229,229,228,228,227,227,227,227,226,225,225,223,223,221,222,221,221,220,220,220,220,220,220,220,220,220,220,221,223,222,223,222,224,227,229,229,230,230,231,229,228,228,227,0,0,0,78,77,79,77,76,77,77,74,77,0,0,0,0,0,0,0,0,232,231,232,231,229,228,225,227,226,0,0,0,0,128,131,128,129,128,128,128,129,128,129,130,129,128,128,130,129,128,132,129,130,130,130,131,130,129,129,128,0,0,80,79,80,80,81,81,80,81,81,81,81,80,81,82,0,0,0,0,0,0,0,0,0,0,0,0,0,0,0,82,0,0,0,0,0,0,0,85,84,81,82,82,82,82,82,82,82,82,82,83,83,83,82,0,0,0,0,0,0,0
0,0,0,0,0,0,0,0,0,0,0,0,0,0,0,0,0,0,0,0,0,0,83,82,82,83,82,81,80,82,81,80,80,79,79,79,79,78,79,79,76,77,77,77,76,77,77,77,76,77,76,76,76,76,75,75,75,75,75,74,74,75,75,77,76,77,77,76,76,77,77,77,77,77,77,78,78,77,77,77,77,77,77,77,77,77,76,77,76,76,76,76,77,78,81,84,86,88,90,92,92,93,94,95,95,95,95,96,96,96,96,97,97,97,96,96,96,97,96,98,101,0,157,158,159,159,161,160,160,161,162,162,163,164,166,167,166,166,166,167,167,167,168,168,168,168,168,168,168,168,168,168,168,169,169,169,169,168,168,168,166,168,168,167,168,168,168,168,168,169,167,167,167,167,167,167,168,168,168,168,169,169,169,170,170,175,181,181,182,183,185,190,195,199,204,0,0,0,0,0,0,0,0,219,224,227,229,230,231,232,231,232,232,240,240,240,232,231,231,230,230,228,228,228,226,227,227,226,224,224,223,223,221,222,220,221,220,219,220,220,220,220,220,220,220,221,221,223,223,224,223,224,227,229,229,230,231,231,229,228,228,228,226,0,0,78,77,79,77,76,77,76,73,76,0,0,0,0,0,0,0,0,0,232,0,0,230,229,227,228,0,0,0,0,0,128,130,128,130,128,128,128,129,128,129,130,129,129,128,131,129,128,132,129,130,131,131,132,131,129,129,128,0,79,79,79,80,80,81,80,80,81,81,81,80,80,82,82,0,0,0,0,0,0,0,0,0,0,0,0,0,0,0,0,0,0,0,0,0,0,0,0,85,82,82,82,83,83,82,82,82,82,83,83,83,83,82,0,0,0,0,0,0,0
0,0,0,0,0,0,0,0,0,0,0,0,0,0,0,0,0,0,0,0,0,0,83,82,82,83,82,81,80,82,80,80,80,79,79,79,79,78,78,79,76,76,76,76,74,76,76,76,75,76,75,76,75,75,74,74,74,74,74,74,74,74,74,76,75,75,75,75,74,75,75,75,76,76,76,76,76,75,75,75,75,75,75,76,75,75,75,75,75,75,76,76,77,79,83,86,87,90,91,93,94,94,94,96,96,96,96,96,96,97,97,97,97,97,96,96,96,98,96,99,0,156,158,159,159,160,161,161,161,161,162,161,162,164,166,166,166,166,166,167,167,167,168,168,168,168,168,168,168,168,168,168,168,169,169,169,169,169,168,168,166,168,168,168,168,168,169,168,168,169,167,167,167,167,167,167,168,168,168,168,169,169,169,170,170,175,180,180,181,182,184,186,191,199,203,213,0,0,0,0,214,0,0,219,226,229,230,231,240,240,240,240,240,240,240,240,232,231,231,230,230,228,228,228,226,227,227,226,224,224,223,223,222,222,220,221,220,219,220,220,220,220,220,221,221,221,222,223,223,224,223,224,227,229,228,230,230,231,229,229,228,228,226,0,0,77,76,78,76,76,77,75,73,75,0,0,0,0,0,125,127,0,0,0,0,127,0,0,0,0,0,127,128,130,128,128,130,128,129,128,128,128,129,128,130,130,129,129,129,131,130,128,133,130,131,131,131,132,131,129,128,127,0,79,80,79,80,80,81,80,80,81,81,81,81,80,82,81,82,0,0,0,0,0,0,0,0,0,0,0,0,0,0,0,0,0,0,0,0,0,0,0,0,0,83,83,83,83,82,82,82,83,83,84,83,84,83,0,0,0,0,0,0,0
0,0,0,0,0,0,0,0,0,0,0,0,0,0,0,0,0,0,0,0,0,0,83,82,82,83,82,81,80,82,80,80,80,79,79,79,78,77,78,79,75,76,76,76,73,76,75,75,75,75,75,75,75,75,74,74,74,73,73,73,73,73,73,74,73,73,73,73,72,72,72,73,74,74,76,74,73,73,73,73,73,74,74,74,74,74,74,74,74,74,75,76,77,79,84,88,89,91,93,94,95,95,96,96,96,96,96,97,97,97,97,97,96,96,95,96,96,96,95,0,0,158,159,160,160,161,162,162,162,162,162,162,163,165,166,166,166,166,166,167,167,166,167,168,168,168,168,168,168,168,168,168,169,169,169,169,169,169,169,169,168,169,169,169,169,169,169,169,168,169,166,166,167,167,167,167,168,168,168,168,169,169,169,169,170,174,179,180,181,182,183,0,186,196,0,211,0,0,0,0,0,0,0,223,229,232,232,232,240,240,240,240,240,240,240,240,240,231,231,230,230,228,229,228,226,227,227,226,225,225,224,225,224,224,221,222,220,220,220,221,221,221,221,221,221,222,222,224,223,224,223,224,227,229,228,229,230,230,228,228,228,227,225,223,0,0,75,77,76,76,77,76,74,77,0,0,0,0,123,125,126,125,125,125,124,127,127,126,126,127,126,127,128,130,128,128,129,128,129,128,128,128,128,128,130,130,130,130,129,131,130,129,133,130,131,132,131,132,131,129,128,127,0,0,80,79,80,80,81,80,80,80,81,81,81,80,82,81,82,82,83,82,81,0,0,0,0,82,0,0,0,0,0,0,0,0,0,0,0,0,223,0,0,0,83,83,83,83,83,82,83,83,83,84,84,84,83,0,0,0,0,0,0,0
0,0,0,0,0,0,0,0,0,0,0,0,0,0,0,0,0,0,0,0,0,0,83,82,82,83,82,81,80,82,80,79,79,78,78,78,78,77,78,78,75,75,75,75,73,76,75,75,75,75,75,75,75,75,74,74,74,73,73,73,73,73,73,73,73,73,72,72,71,71,71,71,73,74,76,73,73,73,74,74,74,74,74,75,74,74,75,75,75,75,76,77,78,81,85,88,90,92,93,95,95,95,96,96,97,97,97,97,97,97,97,97,96,95,95,95,96,95,0,0,159,159,161,162,162,162,163,162,163,163,163,163,164,166,166,167,167,166,166,167,167,166,167,168,168,168,168,168,168,168,168,168,169,169,169,169,169,169,169,169,168,169,169,168,169,169,169,169,168,169,167,167,167,167,167,167,168,168,168,169,169,169,169,169,170,174,178,179,180,182,183,0,185,194,0,0,0,0,0,0,218,0,221,227,231,232,240,240,240,240,240,240,240,240,240,240,240,231,230,229,229,227,228,228,226,227,227,226,226,226,224,225,225,225,222,222,221,220,220,222,222,221,221,222,222,222,223,224,224,225,224,224,227,228,227,229,229,229,227,227,227,226,224,223,224,0,74,77,75,76,76,77,74,78,0,0,0,0,123,124,125,124,125,125,124,126,127,126,126,126,126,127,127,129,127,128,129,127,128,128,127,128,128,128,129,130,129,129,129,131,130,129,133,130,131,132,131,131,130,129,127,127,0,0,81,79,80,80,81,80,80,80,81,81,81,81,82,82,82,83,83,83,81,82,82,82,83,83,0,0,0,0,0,0,0,0,0,0,0,0,0,0,0,0,0,84,84,84,83,83,83,84,84,85,85,85,84,0,0,0,0,0,0,0
0,0,0,0,0,0,0,0,0,0,0,0,0,0,0,0,0,0,0,0,0,0,83,82,82,83,82,81,79,82,80,79,79,78,78,78,78,76,77,78,75,75,75,76,73,76,75,75,75,76,75,76,75,75,74,74,74,73,73,73,73,73,73,74,73,73,73,73,72,73,73,73,74,74,76,74,74,74,75,74,74,75,75,75,75,75,75,75,76,76,77,77,78,81,85,87,90,91,93,94,95,95,96,96,97,96,96,96,97,97,97,96,95,95,94,94,95,0,0,162,160,161,162,163,163,163,164,163,163,163,163,163,164,166,167,167,167,167,167,167,167,166,167,167,168,168,168,168,168,168,168,168,169,169,169,169,170,169,169,169,168,169,169,168,168,169,169,168,168,169,167,167,167,167,167,167,168,168,168,169,169,169,169,169,169,173,176,178,179,181,184,185,186,194,0,0,216,0,217,219,220,220,224,229,231,231,231,231,240,240,240,240,240,240,240,240,240,232,231,230,230,228,228,228,226,227,227,227,226,226,225,226,226,226,223,223,222,221,221,224,223,222,222,222,222,223,223,225,224,226,224,224,227,228,227,229,228,228,227,226,226,225,223,223,224,0,74,77,76,76,76,77,74,78,0,0,0,0,123,124,124,124,124,124,124,126,126,126,125,126,126,126,126,127,126,127,128,127,128,127,127,127,127,128,129,129,129,129,129,131,129,130,133,130,131,131,131,131,129,129,0,0,0,0,83,80,80,81,81,80,80,80,80,81,82,81,83,82,82,83,83,82,81,81,82,82,83,84,83,0,0,0,0,0,0,0,0,0,0,0,0,0,0,0,0,0,84,84,84,83,83,85,85,86,85,86,85,0,0,0,0,0,0,0
0,0,0,0,0,0,0,0,0,0,0,0,0,0,0,0,0,0,0,0,0,0,83,82,82,83,82,81,79,82,79,79,79,78,77,78,77,76,77,78,75,75,75,76,74,76,76,75,76,76,76,76,76,76,75,75,75,74,73,74,73,73,74,74,73,74,73,73,73,73,74,74,73,73,75,73,74,74,75,74,74,75,74,75,74,75,75,75,76,76,77,78,79,82,85,87,89,91,93,94,94,95,96,96,96,96,96,96,96,97,97,96,95,94,94,94,94,0,0,162,161,161,162,163,163,164,164,163,164,164,164,164,165,166,167,167,167,167,167,168,167,166,167,167,168,168,168,168,168,168,168,168,169,169,169,170,170,169,169,169,169,169,169,168,169,169,169,168,168,169,166,166,167,167,167,167,168,168,168,168,169,169,169,169,169,172,173,175,176,179,182,183,0,187,0,0,0,0,217,219,220,221,226,230,232,231,231,231,240,240,240,240,240,240,240,240,240,240,240,240,232,230,230,229,228,228,228,228,227,227,226,227,226,226,224,223,222,221,222,225,224,223,223,222,223,223,223,225,224,226,224,224,226,227,226,228,228,228,226,225,225,224,223,223,223,0,74,76,76,76,75,75,73,76,0,0,0,0,123,124,124,124,124,125,124,126,125,126,125,126,126,126,126,127,126,127,127,126,127,127,126,127,127,127,128,129,128,129,129,131,129,130,132,129,131,131,131,131,130,129,0,0,0,0,83,80,79,80,81,80,80,79,80,0,0,0,82,82,82,82,83,83,82,82,82,82,83,84,84,85,0,0,0,0,0,0,0,0,0,0,0,0,0,0,0,0,85,85,84,83,83,85,85,86,86,86,86,0,0,0,0,0,0,0
0,0,0,0,0,0,0,0,0,0,0,0,0,0,0,0,0,0,0,0,0,0,83,82,82,82,82,81,79,82,79,79,79,78,78,78,78,76,77,78,75,75,76,76,74,76,76,76,76,77,76,76,76,76,75,75,75,74,74,74,74,74,74,74,73,74,73,74,74,74,74,75,74,74,75,74,74,75,75,75,75,75,75,75,75,75,75,75,76,76,77,78,79,82,86,88,90,91,93,94,94,95,96,96,96,96,96,96,96,97,96,96,95,94,94,94,94,0,0,162,161,161,162,163,163,164,164,164,164,164,164,164,165,167,167,168,168,167,167,168,168,166,167,167,168,168,168,168,168,168,168,168,169,169,169,170,170,169,169,170,170,170,170,169,170,170,170,169,169,170,167,167,167,167,167,167,168,168,168,169,169,169,169,169,169,171,172,173,173,173,177,176,177,178,0,0,0,0,0,0,220,222,227,231,240,231,232,232,240,240,240,240,240,240,240,240,240,240,240,240,240,231,231,230,229,229,229,229,228,228,227,227,227,227,224,224,223,222,223,226,225,224,223,223,223,224,224,225,225,226,225,225,225,227,225,228,227,227,225,224,224,223,222,222,222,223,0,76,75,75,74,73,72,0,0,0,0,123,124,124,125,125,125,125,124,126,126,126,125,126,126,126,126,127,126,127,127,126,127,127,127,127,127,127,128,128,128,128,128,130,128,129,132,129,131,130,130,131,130,129,128,127,129,0,0,79,79,80,81,80,80,79,0,0,0,0,0,0,0,0,0,83,82,82,0,82,83,83,83,0,0,0,0,0,0,0,0,0,0,0,225,0,0,0,0,0,85,85,84,83,83,84,85,86,86,87,87,0,0,0,0,0,0,0
0,0,0,0,0,0,0,0,0,0,0,0,0,0,0,0,0,0,0,0,0,0,83,82,82,82,82,81,79,82,79,78,79,78,78,78,78,76,77,78,76,76,76,76,75,76,77,76,76,77,76,76,77,76,75,75,75,74,74,74,74,74,74,74,73,73,73,73,74,74,74,76,74,74,75,74,74,75,76,75,75,75,75,75,75,75,75,76,77,77,77,79,80,83,86,88,90,91,93,93,94,94,95,96,96,96,96,96,96,96,96,95,94,93,93,93,93,0,163,162,162,162,163,164,164,164,165,164,164,164,164,164,166,167,168,168,168,168,167,168,168,166,167,167,167,168,168,168,168,168,168,169,169,169,170,170,170,169,169,171,170,170,169,169,169,170,169,169,169,169,167,167,168,168,167,167,168,168,169,169,169,169,169,169,169,170,171,171,171,171,173,171,171,170,171,170,0,0,0,0,219,222,227,228,230,229,230,231,232,240,232,240,232,240,240,232,240,232,240,232,232,231,230,229,228,229,228,229,228,228,227,228,228,227,226,225,224,223,224,227,226,225,225,225,224,225,225,226,226,226,225,224,224,226,225,228,227,227,224,223,222,222,221,221,222,222,0,76,75,75,73,72,71,0,0,0,0,124,124,125,125,125,126,126,125,126,126,126,126,126,126,127,126,127,127,127,127,126,127,127,127,127,127,127,128,128,128,128,128,130,128,129,132,129,130,129,130,131,130,129,129,128,129,0,0,0,79,81,82,81,0,0,212,218,229,240,0,0,0,0,0,0,0,0,0,82,83,83,82,84,0,0,0,0,0,0,0,0,0,0,227,0,0,0,0,0,0,0,84,83,83,84,85,86,86,87,87,0,0,0,0,0,0,0
0,0,0,0,0,0,0,0,0,0,0,0,0,0,0,0,0,0,0,0,0,0,83,82,82,82,81,81,79,82,79,78,79,78,78,78,78,77,77,78,76,76,76,76,75,76,77,76,76,77,76,76,77,76,75,75,75,75,75,75,74,74,75,74,74,74,74,74,75,75,75,76,75,75,75,74,74,76,76,76,76,76,75,75,75,75,75,76,77,77,78,79,80,83,87,88,90,91,93,93,94,94,95,96,96,96,96,96,96,96,96,95,94,93,93,92,0,0,163,162,162,162,163,164,164,164,165,164,164,164,164,165,166,167,168,168,168,168,167,168,168,166,167,167,167,168,168,168,168,168,168,169,169,170,170,170,170,169,169,171,171,171,170,170,170,171,170,169,169,170,168,168,168,169,167,167,168,169,169,169,169,169,169,169,168,169,170,170,170,169,169,168,168,168,168,0,0,0,0,0,0,0,0,0,0,224,227,228,230,240,232,240,231,232,231,231,231,230,231,231,231,230,229,228,227,228,227,229,228,228,227,228,228,228,226,226,226,225,226,228,226,225,225,226,225,226,226,226,226,227,225,225,224,225,225,228,228,227,225,223,222,222,221,221,221,222,0,77,75,75,72,71,70,71,71,0,0,124,125,125,125,126,127,127,125,126,126,127,126,127,127,127,127,127,127,128,127,127,127,127,127,127,127,127,128,128,127,128,128,130,128,129,131,129,130,129,129,130,130,129,128,128,129,127,123,0,0,83,0,0,0,0,211,219,230,240,0,0,240,0,0,0,0,0,0,0,0,0,0,0,0,0,0,0,0,0,0,0,0,0,225,0,0,0,0,0,0,0,84,83,83,84,85,86,87,87,87,0,0,0,0,0,0,0
0,0,0,0,0,0,0,0,0,0,0,0,0,0,0,0,0,0,0,0,0,0,83,82,82,82,81,81,79,82,79,78,79,78,78,78,78,77,77,78,76,76,76,77,75,77,77,77,77,77,77,77,77,76,76,76,76,75,75,75,75,75,75,75,75,75,75,75,76,76,76,77,76,75,76,76,75,76,77,76,76,76,76,76,75,76,76,76,77,77,78,80,81,84,87,89,91,92,93,93,94,95,96,96,96,96,96,96,96,96,96,95,94,93,93,0,0,0,163,162,162,162,163,164,163,164,164,164,164,164,164,164,166,167,167,168,168,168,167,168,168,166,168,167,168,168,168,169,169,169,169,169,170,170,170,170,171,170,170,172,171,172,171,171,171,172,171,170,170,171,169,169,169,170,168,168,168,169,169,169,168,168,168,168,168,168,168,168,168,168,168,168,168,168,168,168,169,0,0,0,0,0,0,0,0,0,225,228,230,232,231,232,230,230,230,229,229,229,230,230,230,229,228,227,227,228,226,229,229,229,228,228,228,228,227,226,225,226,227,228,227,226,226,226,226,227,226,227,226,227,226,225,224,224,225,228,228,227,225,223,222,222,221,221,221,222,0,77,75,75,72,70,69,69,71,0,0,123,125,125,125,126,127,127,126,126,126,127,127,127,127,128,127,127,127,128,128,127,127,127,128,127,127,127,128,128,128,128,128,130,128,129,131,129,130,128,129,129,130,128,128,127,128,127,122,125,0,0,0,0,0,0,208,219,230,0,0,0,0,0,0,0,0,0,0,0,0,0,0,0,0,0,0,0,0,0,0,0,0,0,0,0,0,0,0,85,85,85,84,83,83,84,85,86,87,0,0,0,0,0,0,0,0,0
0,0,0,0,0,0,0,0,0,0,0,0,0,0,0,0,0,0,0,0,0,0,83,82,82,82,81,81,79,82,79,78,79,78,78,78,78,77,78,78,77,77,77,77,76,77,77,77,77,77,77,77,77,77,76,76,76,75,75,75,75,75,76,75,75,76,76,76,76,76,77,78,76,76,77,76,76,77,77,76,76,76,76,76,76,76,76,76,77,77,78,81,82,85,88,90,91,92,93,94,94,95,96,96,96,96,96,96,96,96,96,94,94,93,0,0,0,0,163,163,162,162,163,164,163,164,164,164,164,164,164,164,166,167,167,167,167,167,167,168,168,166,168,167,168,168,168,169,169,169,169,169,170,170,170,170,171,170,170,173,172,172,172,171,171,172,171,171,171,171,170,170,170,170,168,168,168,169,169,169,168,168,168,168,168,167,168,167,167,167,167,167,167,167,167,168,169,0,0,0,0,0,0,0,0,0,222,225,228,230,229,230,229,230,229,229,229,229,230,229,229,229,229,227,227,229,227,229,229,230,230,230,230,230,229,228,228,228,228,229,227,227,227,227,226,227,227,227,227,227,226,226,224,224,225,228,228,227,225,223,222,222,221,221,221,222,0,0,0,76,0,71,69,0,72,0,0,123,125,125,125,126,127,127,126,126,126,127,127,128,127,128,127,127,127,128,127,127,127,127,128,127,127,127,127,128,127,128,129,130,128,128,131,128,129,128,128,129,129,128,128,128,129,127,123,127,0,0,0,0,0,199,209,219,231,0,0,0,0,0,0,0,0,0,179,179,0,0,0,0,0,0,0,0,0,0,0,0,0,0,0,0,0,0,86,86,86,86,85,84,84,85,86,86,87,0,0,0,0,0,0,0,0,0
